ply
format ascii 1.0
element vertex 1278
property float x
property float y
property float z
property uchar red
property uchar green
property uchar blue
end_header
0.337081 0.086030 0.464656 204 51 127
0.522291 -0.174598 -0.075450 76 0 153
0.423968 0.019300 0.209502 127 0 127
-0.429641 0.082446 -0.488276 76 0 153
0.151020 -0.073675 -0.111271 153 0 76
0.367914 -0.091590 0.131470 127 0 127
-0.813332 0.268837 0.413976 76 153 0
0.404767 -0.228046 -0.488276 76 0 153
0.143787 -0.340591 0.326536 0 0 255
0.316883 0.177475 -0.032266 153 0 76
-0.748199 -0.335783 -0.442274 76 0 153
-0.767448 0.054722 -0.488276 76 0 153
0.120535 -0.339039 -0.475673 76 0 153
0.220615 -0.160645 0.057802 0 127 127
-0.428542 0.159156 -0.432805 76 0 153
-0.798452 -0.192096 0.246562 153 76 0
-0.793612 -0.034863 -0.397143 153 76 0
-0.853860 0.223060 0.318661 153 76 0
0.583462 -0.340348 -0.133699 0 0 255
0.248273 0.162759 -0.032266 153 0 76
0.123717 -0.093795 0.470330 255 0 0
0.043032 0.272650 0.018009 76 153 0
0.587919 -0.339612 0.244605 0 0 255
0.223444 0.101306 0.569881 76 0 153
-0.525775 -0.076154 -0.433809 76 0 153
-0.438512 -0.073544 -0.433445 76 0 153
0.362482 -0.340591 -0.274876 0 0 255
0.208032 0.088357 0.451499 204 51 127
0.489367 -0.093916 0.443906 127 0 127
0.116194 0.144647 0.246344 76 0 153
-0.853862 0.016615 -0.086550 153 76 0
-0.464857 0.272650 0.002634 76 153 0
-0.791723 0.272650 -0.013826 76 153 0
0.258284 -0.340591 0.293790 0 0 255
0.614447 -0.299140 0.132594 76 0 153
0.534923 -0.237446 0.246975 76 0 153
0.049465 -0.241469 0.054924 153 0 76
0.132012 -0.009571 -0.061633 153 0 76
0.614506 0.243956 0.196195 76 0 153
0.615032 -0.015667 -0.217294 76 0 153
-0.495360 0.272650 0.128540 76 153 0
0.203204 0.148507 -0.488276 76 0 153
0.049465 -0.240676 -0.001735 153 0 76
0.187436 0.199340 0.126742 76 153 0
0.059381 -0.334598 0.396991 0 0 255
0.049465 0.118789 -0.254825 153 0 76
-0.771359 0.222192 -0.246257 76 153 0
0.275171 -0.340591 -0.037533 0 0 255
-0.042735 0.229236 -0.100865 76 153 0
0.330481 0.132298 -0.032266 153 0 76
0.390207 0.199246 0.027045 76 153 0
0.066363 0.184022 0.421287 153 0 76
0.614864 0.247784 -0.360484 76 0 153
0.150914 0.211753 0.421669 153 0 76
-0.607242 -0.081619 -0.488276 76 0 153
-0.346155 0.272650 0.123208 76 153 0
0.147039 -0.202781 0.569881 153 0 76
0.042272 0.199785 0.325550 153 0 76
0.252688 -0.203031 -0.171582 76 0 153
0.548448 0.124424 0.116179 153 76 0
0.240996 -0.335963 0.412179 0 0 255
0.053199 -0.324547 -0.256988 153 0 76
-0.516424 0.082836 -0.432868 76 0 153
0.152075 0.183185 -0.151793 76 153 0
-0.367056 0.272650 0.189226 76 153 0
0.442031 0.272637 -0.448850 76 153 0
-0.115815 -0.119123 -0.488276 76 0 153
0.168065 -0.013570 -0.032266 127 127 0
-0.853670 0.095200 0.390736 153 76 0
0.285281 0.019300 0.033696 127 0 127
0.458359 -0.042401 -0.488276 76 0 153
0.289105 -0.273861 0.349606 153 0 76
-0.853862 -0.250406 0.073766 153 76 0
-0.853862 0.116031 0.150210 153 76 0
-0.725998 -0.181376 -0.433890 76 0 153
0.311293 -0.271535 0.547872 153 0 76
0.436722 0.272650 0.104603 76 153 0
0.501271 0.053360 0.422183 127 0 127
-0.011532 0.229316 -0.058785 76 153 0
0.503788 0.087690 0.486726 204 51 127
0.509472 -0.340591 -0.390781 0 0 255
0.049465 -0.039348 0.271905 153 0 76
-0.853862 -0.135715 -0.064973 153 76 0
0.347499 0.199329 -0.109954 76 153 0
0.522085 0.116050 0.569881 76 0 153
-0.116649 0.272650 -0.298748 76 153 0
0.044844 -0.156161 -0.395075 153 0 76
-0.136148 -0.222653 -0.433301 76 0 153
-0.799119 -0.274913 0.205916 153 76 0
0.401345 -0.340591 0.245965 0 0 255
-0.799451 -0.208518 -0.270600 153 76 0
-0.622219 -0.041770 -0.488276 76 0 153
-0.546130 0.272650 0.336502 76 153 0
0.049467 0.133828 0.250121 153 0 76
-0.599292 -0.180193 -0.433867 76 0 153
-0.218789 0.076015 -0.433867 76 0 153
0.226263 -0.278507 0.417662 0 0 255
0.260967 0.041448 0.422021 127 0 127
0.585192 0.272198 -0.369916 76 153 0
-0.396776 -0.156596 -0.433715 76 0 153
-0.246486 -0.161446 -0.488276 76 0 153
0.403419 -0.160645 0.117016 0 127 127
0.323487 0.272094 0.405040 76 153 0
0.049467 -0.286214 0.062129 153 0 76
0.324593 -0.218929 -0.488276 76 0 153
0.116248 -0.088670 0.166066 255 0 0
0.255922 0.119595 -0.168559 127 0 127
-0.853862 -0.086377 0.046459 153 76 0
-0.799093 -0.059743 -0.031557 153 76 0
0.546399 -0.164003 0.085394 153 76 0
0.403846 -0.093662 -0.488276 76 0 153
-0.444472 0.269659 0.412644 76 153 0
0.277584 0.086030 0.479547 204 51 127
-0.809452 -0.112607 -0.488220 76 0 153
0.519441 0.001911 -0.037898 127 0 127
0.533210 -0.048344 0.130834 76 0 153
-0.153328 0.229236 -0.276319 76 153 0
0.569173 -0.236610 0.422257 76 0 153
0.391945 -0.011765 -0.030938 127 127 0
0.498543 -0.269286 -0.122950 0 0 255
0.377065 0.105437 -0.488276 76 0 153
0.328440 0.272650 0.122925 76 153 0
-0.291751 0.272650 -0.128071 76 153 0
0.046035 -0.019954 -0.392754 153 0 76
-0.164807 0.229236 0.022454 76 153 0
0.614330 -0.275107 -0.450921 76 0 153
0.142181 0.095192 -0.488276 76 0 153
0.049466 -0.275099 -0.281919 153 0 76
0.117226 0.272650 0.337336 76 153 0
-0.293852 0.229236 0.267366 76 153 0
0.615176 0.115323 -0.381321 76 0 153
-0.028178 -0.292479 -0.433371 76 0 153
0.294275 -0.057095 -0.164969 76 0 153
0.506648 -0.061907 -0.153094 76 0 153
0.000494 0.229401 0.366824 76 153 0
0.225998 0.199246 -0.001421 76 153 0
0.507285 -0.078758 0.406428 0 127 127
-0.799062 0.040992 -0.136277 153 76 0
-0.199941 0.121971 -0.488276 76 0 153
0.253742 -0.160645 0.094248 0 127 127
-0.678630 -0.150232 -0.488276 76 0 153
-0.092352 -0.258287 -0.488276 76 0 153
-0.155541 0.154448 -0.433888 76 0 153
-0.608893 -0.247528 -0.488276 76 0 153
-0.712706 -0.013523 -0.433879 76 0 153
0.614379 -0.278438 -0.134690 76 0 153
-0.853862 -0.119626 0.155429 153 76 0
-0.426650 0.272650 -0.120418 76 153 0
0.478259 -0.160490 -0.000727 0 127 127
0.385592 0.272650 0.264489 76 153 0
0.471196 0.085980 0.098056 127 0 127
0.071750 0.272650 -0.200674 76 153 0
0.614373 -0.079259 -0.126931 76 0 153
0.456258 0.272650 0.008631 76 153 0
0.116194 -0.077264 0.538896 255 0 0
0.419342 0.019387 0.387643 127 0 127
0.347146 -0.340591 -0.114765 0 0 255
-0.133869 0.229236 -0.061989 76 153 0
0.316851 -0.160645 0.321500 0 127 127
-0.292699 0.229236 0.146520 76 153 0
-0.317311 0.272638 0.374775 76 153 0
-0.799429 0.167066 0.185058 153 76 0
0.426379 0.006179 -0.030939 127 127 0
-0.379461 0.272650 0.151851 76 153 0
0.322249 -0.240849 -0.030938 76 0 153
0.048219 0.171503 -0.353287 153 0 76
0.166673 0.087955 0.219257 153 0 76
-0.640768 0.227586 -0.389462 76 153 0
-0.192279 0.229236 0.314198 76 153 0
0.049666 0.115997 -0.385167 153 0 76
0.243600 -0.160645 0.295971 0 127 127
0.447769 -0.273861 0.469618 153 0 76
-0.545572 0.272642 -0.435976 76 153 0
-0.798871 -0.122136 0.007039 153 76 0
0.548448 0.174803 0.155561 153 76 0
-0.333031 0.229236 0.015983 76 153 0
0.242736 0.086030 0.336868 204 51 127
-0.842279 -0.225240 0.420215 153 76 0
-0.842164 -0.000307 0.420225 153 76 0
0.259605 0.168654 -0.166851 76 153 0
-0.213039 0.272650 0.329631 76 153 0
-0.708699 0.272650 -0.324231 76 153 0
0.379796 -0.272920 -0.488276 76 0 153
0.467944 0.272650 -0.148166 76 153 0
-0.765265 0.272650 -0.307454 76 153 0
0.469222 -0.093916 0.036284 127 0 127
0.408426 -0.160645 0.056617 0 127 127
0.470735 0.199482 -0.120958 76 153 0
-0.492288 0.272650 -0.377829 76 153 0
0.614255 -0.009400 0.205914 76 0 153
0.488521 0.171072 -0.030938 153 0 76
0.269907 0.272637 -0.449184 76 153 0
0.468149 -0.272534 0.332154 153 0 76
0.581024 0.160477 0.421846 76 0 153
0.614450 -0.279472 0.220246 76 0 153
-0.655373 0.229236 -0.200432 76 153 0
0.291353 -0.271535 0.130743 153 0 76
0.049465 0.060962 0.048771 153 0 76
-0.041782 0.229236 0.039862 76 153 0
0.614457 -0.071145 -0.268507 76 0 153
-0.805632 -0.328909 -0.324971 153 76 0
0.203392 0.272650 -0.271398 76 153 0
0.280910 -0.093916 0.236237 127 0 127
-0.853862 -0.113379 0.193055 153 76 0
-0.313121 -0.230109 -0.432879 76 0 153
0.124383 -0.216699 -0.067663 153 0 76
0.274419 -0.160645 0.216356 0 127 127
-0.853862 0.198030 -0.414115 153 76 0
0.456169 -0.157269 0.567832 153 0 76
0.131186 -0.058202 -0.015550 153 0 76
0.525187 0.179283 0.349744 76 0 153
-0.790609 0.044829 -0.402953 153 76 0
-0.335283 -0.135433 -0.488276 76 0 153
0.275816 0.126945 0.567554 76 0 153
0.539190 0.086042 0.028502 204 51 127
-0.799006 -0.199786 0.114622 153 76 0
0.425446 -0.273861 0.344290 153 0 76
-0.673223 0.203994 -0.488274 76 0 153
0.107194 -0.339697 0.393406 0 0 255
0.199234 0.272650 -0.076646 76 153 0
-0.116908 0.230503 0.401001 76 153 0
-0.607129 0.066953 -0.433320 76 0 153
0.288864 -0.091590 0.549007 127 0 127
0.352301 0.199246 0.021025 76 153 0
-0.853862 -0.084069 0.131928 153 76 0
0.534042 -0.095582 -0.488276 76 0 153
0.198342 0.272650 -0.023009 76 153 0
0.020866 0.272650 -0.168783 76 153 0
-0.092652 0.085248 -0.433867 76 0 153
0.134890 -0.202419 -0.488276 76 0 153
0.241206 0.272650 0.234977 76 153 0
0.424923 0.088357 0.403421 204 51 127
-0.014789 -0.328144 -0.486597 76 0 153
0.359862 -0.151374 0.418585 0 127 127
0.164412 -0.162901 0.106663 0 127 127
0.116700 -0.162866 -0.022546 76 0 153
-0.853862 0.021140 0.049481 153 76 0
-0.798150 -0.295892 -0.388912 153 76 0
0.412967 -0.273280 -0.003588 0 0 255
0.118483 -0.081905 0.281055 255 0 0
-0.799451 0.141804 -0.048613 153 76 0
-0.363361 0.229236 -0.204661 76 153 0
0.614430 0.146268 0.377358 76 0 153
0.553352 -0.340577 0.379763 0 0 255
-0.153535 -0.313932 -0.433293 76 0 153
0.175525 -0.301531 0.422158 0 0 255
0.548366 0.015029 0.475552 0 255 0
0.262022 -0.340591 0.095540 0 0 255
-0.570491 0.143447 -0.488276 76 0 153
-0.799451 -0.248651 -0.314950 153 76 0
0.200261 -0.160632 0.291409 0 127 127
-0.568252 0.003756 -0.488276 76 0 153
-0.853862 -0.265057 -0.018298 153 76 0
0.190102 -0.340591 0.255945 0 0 255
-0.853862 -0.000827 -0.337607 153 76 0
-0.527788 0.173246 -0.430569 76 0 153
0.047404 0.179808 0.060431 153 0 76
0.030293 0.268905 -0.480069 76 153 0
0.493619 0.272650 -0.189802 76 153 0
0.403023 0.272650 0.195032 76 153 0
0.167403 -0.338950 0.399365 0 0 255
0.378211 -0.340591 0.309994 0 0 255
0.332448 0.272650 -0.329180 76 153 0
0.423890 0.011147 -0.135311 76 0 153
-0.803432 -0.164421 0.413327 153 76 0
-0.133196 0.052139 -0.488276 76 0 153
0.049465 -0.264005 -0.175150 153 0 76
-0.611092 0.156182 -0.432887 76 0 153
-0.799452 0.071941 -0.095108 153 76 0
-0.799175 -0.071572 -0.302779 153 76 0
0.364938 0.266676 -0.484798 76 153 0
0.086152 -0.169353 0.422126 153 0 76
0.228316 0.019304 0.234764 127 0 127
-0.164551 0.272650 -0.365299 76 153 0
-0.733261 0.272645 -0.430184 76 153 0
-0.690145 0.229236 0.228267 76 153 0
-0.691135 0.272650 0.341717 76 153 0
0.454759 -0.340591 0.282389 0 0 255
0.116194 -0.057124 0.368633 255 0 0
0.309697 -0.199614 0.568941 76 153 0
0.369704 -0.093916 0.392361 127 0 127
-0.847359 -0.205339 -0.481449 153 76 0
-0.799451 0.069267 -0.009053 153 76 0
0.094675 -0.340485 -0.178306 0 0 255
-0.853608 -0.303905 0.044606 153 76 0
0.434756 -0.093916 0.241563 127 0 127
0.206539 0.045854 0.421847 127 0 127
-0.853715 0.235015 -0.361979 153 76 0
0.485809 0.199429 -0.084714 76 153 0
-0.742331 0.225726 -0.488251 76 0 153
-0.193634 0.272650 -0.258136 76 153 0
-0.799039 -0.161448 0.045591 153 76 0
0.614669 -0.050728 -0.358579 76 0 153
0.549459 -0.340591 -0.339691 0 0 255
0.049465 -0.203232 0.289206 153 0 76
0.339888 -0.160538 0.389397 0 127 127
0.042101 -0.278408 -0.400341 153 0 76
-0.798565 -0.214610 0.388415 153 76 0
0.614670 -0.050599 -0.414974 76 0 153
0.267104 -0.307940 -0.488027 76 0 153
0.408206 0.086030 0.475998 204 51 127
0.521134 -0.091590 0.074608 127 0 127
0.369318 0.012186 -0.488276 76 0 153
-0.183045 0.229236 -0.346658 76 153 0
-0.853862 0.108095 0.194302 153 76 0
-0.686346 0.272650 -0.165111 76 153 0
0.053066 -0.324405 -0.059025 153 0 76
0.333794 -0.305229 -0.488066 76 0 153
0.049465 0.020200 0.055153 153 0 76
-0.029578 0.272650 -0.253635 76 153 0
0.469181 -0.273861 0.536757 153 0 76
0.547730 0.114128 0.445978 153 76 0
0.049465 0.076411 -0.314614 153 0 76
0.325017 0.272650 0.210651 76 153 0
0.425366 -0.093916 0.530493 127 0 127
-0.043203 0.229236 0.125193 76 153 0
-0.779617 0.272650 -0.382541 76 153 0
-0.536872 0.272650 -0.146960 76 153 0
0.189790 0.165980 -0.030938 153 0 76
-0.243051 0.229236 -0.171551 76 153 0
0.440399 -0.160645 0.239196 0 127 127
-0.693062 0.272650 -0.277133 76 153 0
0.563515 -0.044360 0.422038 76 0 153
0.124196 -0.229765 0.169258 153 0 76
0.442253 0.115137 -0.032266 153 0 76
0.231778 -0.160600 0.386724 0 127 127
0.488326 0.272644 0.363336 76 153 0
0.431190 -0.340591 -0.233456 0 0 255
0.250596 -0.272534 0.183576 153 0 76
0.011124 -0.049891 -0.428247 76 0 153
-0.237841 0.151047 -0.433885 76 0 153
0.444837 0.179593 -0.488276 76 0 153
-0.688471 0.272650 0.071250 76 153 0
0.178128 -0.031865 -0.488276 76 0 153
0.266560 -0.001238 -0.029939 127 127 0
-0.853862 0.052057 -0.085239 153 76 0
0.138155 -0.092590 0.034235 127 0 127
0.106644 -0.340591 -0.248135 0 0 255
0.265489 0.121770 -0.032266 153 0 76
0.522735 0.185966 0.404520 76 0 153
-0.222878 0.229236 0.108703 76 153 0
0.503588 0.272650 -0.085951 76 153 0
0.315810 -0.340591 -0.136944 0 0 255
0.258830 -0.160645 0.184328 0 127 127
-0.766566 0.224825 0.295761 76 153 0
-0.323880 0.229236 0.170572 76 153 0
0.395902 -0.339398 0.395282 0 0 255
0.368197 0.272650 0.060345 76 153 0
0.548448 -0.058795 0.002923 0 255 0
0.433132 0.119684 0.569493 76 0 153
0.501294 -0.091590 0.163388 127 0 127
-0.217469 0.229236 -0.321902 76 153 0
0.203659 0.045907 -0.488276 76 0 153
0.049465 0.006379 -0.105829 153 0 76
0.443762 0.229492 -0.488223 76 0 153
0.134792 0.215868 -0.488272 76 0 153
-0.372333 -0.072718 -0.433402 76 0 153
-0.381853 0.269558 0.412857 76 153 0
-0.720235 0.046810 -0.433838 76 0 153
0.410838 -0.091590 0.119983 127 0 127
0.330795 -0.046918 -0.488276 76 0 153
0.140015 0.182957 0.243721 153 0 76
0.238717 -0.340591 -0.277113 0 0 255
-0.820584 -0.338238 -0.188845 153 76 0
0.515307 0.272650 -0.298273 76 153 0
-0.799382 0.184216 0.252682 153 76 0
0.520444 0.000600 -0.108665 76 0 153
0.504997 -0.265683 0.171097 0 0 255
0.514143 -0.037133 0.567554 0 0 255
0.381979 0.088357 0.111963 204 51 127
-0.169952 0.272650 -0.135624 76 153 0
0.506532 0.093607 0.134677 127 0 127
-0.251921 -0.077543 -0.488276 76 0 153
0.301665 0.086706 0.285529 127 0 127
-0.853396 -0.314752 -0.162115 153 76 0
0.213901 0.199246 0.031686 76 153 0
0.243789 -0.093916 0.521739 127 0 127
0.509333 -0.192109 -0.161416 76 0 153
0.330822 0.019520 0.395121 127 0 127
0.049465 0.016781 -0.323626 153 0 76
-0.194262 0.229236 0.215758 76 153 0
-0.401088 0.025428 -0.488276 76 0 153
0.049465 -0.054863 0.115943 153 0 76
0.143502 -0.000464 0.019065 153 0 76
0.549683 -0.340591 -0.143512 0 0 255
0.116813 -0.162464 0.368136 76 0 153
-0.615560 0.272647 -0.424734 76 153 0
-0.351487 0.272350 0.395347 76 153 0
0.049472 -0.136973 0.383251 153 0 76
-0.107561 0.272650 0.188880 76 153 0
0.084800 0.271048 0.409738 76 153 0
0.117984 -0.056470 0.115814 255 0 0
0.224272 0.212516 -0.488273 76 0 153
-0.834376 -0.295629 0.420835 153 76 0
-0.555463 0.229236 0.271663 76 153 0
-0.823603 0.139334 0.421279 153 76 0
-0.746039 0.227917 -0.218143 76 153 0
0.049465 -0.193517 0.323537 153 0 76
-0.199181 0.229236 0.057856 76 153 0
0.245948 -0.091590 0.365628 127 0 127
0.246339 0.088357 0.009443 204 51 127
-0.799452 -0.284877 -0.246477 153 76 0
0.501879 0.272650 0.135961 76 153 0
-0.714635 0.272650 -0.076394 76 153 0
0.154526 0.088357 0.493431 204 51 127
-0.799220 -0.116018 -0.049012 153 76 0
0.168930 0.272650 0.120055 76 153 0
-0.853862 -0.055010 -0.177243 153 76 0
0.049465 -0.060661 0.209765 153 0 76
0.277884 0.161867 0.569600 76 0 153
0.047010 0.184634 0.387902 153 0 76
0.133658 0.272650 -0.234966 76 153 0
0.574691 0.236012 -0.488019 76 0 153
-0.799451 0.104814 0.334471 153 76 0
-0.596634 0.070893 -0.488276 76 0 153
-0.853862 0.165629 0.016686 153 76 0
-0.853862 -0.194505 -0.045751 153 76 0
-0.799193 0.109834 0.389118 153 76 0
-0.144386 0.272650 -0.226443 76 153 0
0.345748 0.199246 0.223999 76 153 0
-0.559024 -0.340266 -0.455952 76 0 153
0.548328 0.180439 0.071433 153 76 0
-0.799060 -0.060503 -0.137973 153 76 0
0.183333 -0.273861 0.227819 153 0 76
-0.498609 0.272650 0.209408 76 153 0
0.149349 -0.340591 0.000319 0 0 255
-0.853862 -0.104583 -0.082797 153 76 0
0.279057 0.272390 0.393827 76 153 0
0.436220 -0.008319 -0.488276 76 0 153
0.453236 0.199246 0.236243 76 153 0
0.164583 0.012016 0.202900 127 0 127
0.614191 0.192328 -0.138306 76 0 153
0.562429 -0.340530 0.343213 0 0 255
-0.370613 0.272650 -0.219732 76 153 0
0.049465 -0.073315 0.313230 153 0 76
0.405528 -0.092589 0.283429 127 0 127
0.378358 0.221123 -0.488271 76 0 153
-0.113198 0.272650 0.123463 76 153 0
0.225077 0.087356 0.135451 204 51 127
-0.295462 0.229236 -0.031027 76 153 0
0.345226 -0.271535 0.051814 153 0 76
0.615175 0.212596 -0.401067 76 0 153
0.112994 -0.340591 -0.211347 0 0 255
0.280660 -0.340591 -0.399803 0 0 255
0.548301 -0.206559 0.473490 153 76 0
0.190326 0.206732 0.418092 76 153 0
0.048667 0.166926 -0.204439 153 0 76
-0.804707 -0.327198 0.195456 153 76 0
-0.798119 -0.258651 -0.388929 153 76 0
-0.627989 -0.217319 -0.488276 76 0 153
0.049465 -0.190788 -0.073831 153 0 76
0.147821 -0.091590 0.535870 127 0 127
0.614435 -0.283801 -0.407381 76 0 153
0.307638 -0.172774 -0.032265 76 0 153
-0.853862 -0.261921 -0.128979 153 76 0
0.449823 0.019300 -0.056251 127 0 127
0.546121 -0.175417 0.029962 153 76 0
0.164612 0.150002 -0.488276 76 0 153
-0.853862 0.118451 -0.319695 153 76 0
0.328165 -0.060143 -0.032266 127 127 0
0.547897 -0.162774 0.359292 153 76 0
-0.621222 0.229236 0.254125 76 153 0
0.226850 -0.003190 -0.156899 76 0 153
-0.096295 0.142154 -0.433879 76 0 153
0.607267 0.263205 0.355399 76 0 153
0.170936 0.086030 0.438564 204 51 127
0.614963 -0.166883 0.223688 76 0 153
-0.136306 0.229236 0.167263 76 153 0
0.231076 -0.340591 0.330788 0 0 255
0.614177 0.034478 0.273381 76 0 153
-0.799451 0.146268 0.053741 153 76 0
0.337406 0.199246 0.062814 76 153 0
0.188211 0.272650 0.191826 76 153 0
-0.382806 -0.243769 -0.433601 76 0 153
0.366312 0.098559 -0.152633 127 0 127
-0.067081 0.229236 0.289133 76 153 0
0.049473 0.154482 -0.071023 153 0 76
0.614176 -0.256758 -0.045054 76 0 153
0.049465 -0.159699 0.093273 153 0 76
-0.676999 -0.168996 -0.433867 76 0 153
-0.018171 0.047521 -0.433069 76 0 153
0.049465 -0.016322 -0.249704 153 0 76
0.072728 0.059053 -0.488276 76 0 153
-0.479952 -0.110522 -0.433867 76 0 153
-0.853862 -0.005951 0.135021 153 76 0
0.170841 0.011087 -0.114842 127 0 127
0.495790 -0.136357 -0.488276 76 0 153
-0.688859 0.229236 -0.164686 76 153 0
0.472264 -0.091590 0.109593 127 0 127
0.117363 -0.271971 0.535756 76 0 153
-0.353187 0.229236 -0.171534 76 153 0
0.116194 0.000271 0.206226 255 0 0
-0.853862 0.096466 0.054266 153 76 0
0.278367 0.019300 0.071081 127 0 127
0.539036 0.160373 -0.057692 76 0 153
0.232454 -0.273721 0.115175 0 0 255
0.186372 -0.263461 0.567499 153 0 76
-0.853862 0.195851 0.033556 153 76 0
-0.020248 0.272650 -0.029247 76 153 0
-0.503757 0.229236 0.306231 76 153 0
-0.379268 0.272648 0.355590 76 153 0
0.129092 -0.270812 -0.031764 76 0 153
0.253839 0.272650 0.326621 76 153 0
0.529507 -0.061997 -0.034167 76 0 153
-0.798688 -0.292722 0.315335 153 76 0
-0.287458 0.272650 -0.327242 76 153 0
0.495160 0.087357 0.382836 204 51 127
0.117522 0.159672 0.446875 76 0 153
-0.177510 0.272650 0.299698 76 153 0
0.614177 -0.208401 -0.084592 76 0 153
0.263485 -0.091590 0.300272 127 0 127
0.614405 0.175031 -0.207548 76 0 153
-0.315049 0.229236 -0.097517 76 153 0
-0.853862 -0.174461 0.298800 153 76 0
0.167525 0.085830 0.555511 204 51 127
0.594256 0.269654 0.170150 76 153 0
-0.255892 0.272650 0.333695 76 153 0
-0.275916 0.082843 -0.488276 76 0 153
0.049465 -0.129513 -0.144929 153 0 76
0.264233 0.157527 -0.488276 76 0 153
0.355168 0.249531 0.422263 76 153 0
-0.486197 0.272650 0.347797 76 153 0
0.149370 -0.169057 0.070297 0 127 127
0.501205 0.240917 0.422170 76 153 0
-0.852382 -0.319619 0.169398 153 76 0
0.049465 0.086301 -0.010009 153 0 76
0.404694 -0.340591 0.161422 0 0 255
0.049465 -0.156052 -0.063713 153 0 76
0.429518 -0.340591 -0.025350 0 0 255
-0.853862 -0.263579 0.216661 153 76 0
0.212947 0.086602 -0.111225 127 0 127
-0.701247 0.229237 0.094233 76 153 0
-0.812067 0.272371 -0.412819 76 153 0
0.049465 -0.240299 -0.073705 153 0 76
-0.296710 -0.141122 -0.488276 76 0 153
0.221628 -0.240851 0.567554 153 0 76
0.341311 0.086706 0.167563 127 0 127
-0.123460 0.229236 -0.138185 76 153 0
0.049750 -0.086592 0.393208 153 0 76
0.448437 0.181179 -0.032266 153 0 76
0.318619 0.199251 0.374396 76 153 0
-0.017551 0.270629 0.410605 76 153 0
-0.853861 -0.252933 -0.426238 153 76 0
0.553354 0.272650 -0.245527 76 153 0
0.539568 -0.090720 0.535632 0 255 0
-0.853768 -0.295685 0.336899 153 76 0
0.464038 -0.201259 -0.488276 76 0 153
0.208705 0.199246 0.180806 76 153 0
0.049473 -0.096293 -0.355404 153 0 76
0.206358 -0.160645 0.235780 0 127 127
0.035439 -0.206439 -0.412652 153 0 76
-0.853862 0.014359 0.232251 153 76 0
-0.799451 -0.241967 -0.234900 153 76 0
-0.272159 0.158583 -0.488276 76 0 153
0.614176 0.098894 -0.063170 76 0 153
-0.799451 0.110846 0.280550 153 76 0
0.614177 0.014409 0.141015 76 0 153
0.285221 0.086030 0.331688 204 51 127
0.325169 0.272650 0.285393 76 153 0
-0.853862 0.069509 0.255835 153 76 0
-0.309678 0.272650 -0.164342 76 153 0
0.154147 0.086030 0.354920 204 51 127
0.480202 -0.271535 0.092116 153 0 76
0.323652 -0.034678 0.567554 0 0 255
0.310673 -0.093240 -0.062698 0 127 127
-0.014259 0.272650 0.294943 76 153 0
0.212783 -0.126797 0.422070 0 127 127
0.576897 0.272323 0.274663 76 153 0
0.239053 -0.340591 -0.181406 0 0 255
-0.022932 0.272650 -0.315661 76 153 0
-0.786905 0.213433 -0.203977 153 76 0
0.179235 -0.274076 0.157218 0 0 255
0.614417 0.177911 0.390446 76 0 153
0.615176 0.149683 -0.394560 76 0 153
0.235265 -0.093916 0.008062 127 0 127
-0.405653 -0.137002 -0.488276 76 0 153
0.390845 -0.137104 0.421224 0 127 127
-0.853862 0.141928 -0.237033 153 76 0
-0.204767 0.058394 -0.488276 76 0 153
0.483831 0.019421 0.024139 127 0 127
-0.382127 0.272650 -0.168081 76 153 0
0.157184 -0.088184 -0.032227 127 127 0
0.473182 -0.340591 -0.081354 0 0 255
0.183291 0.087357 0.084939 204 51 127
-0.558142 0.097900 -0.488276 76 0 153
0.242989 -0.019753 -0.488276 76 0 153
0.118360 0.132920 0.471285 76 0 153
0.548448 -0.247535 0.069931 153 76 0
-0.302105 -0.312526 -0.433267 76 0 153
-0.742338 0.228216 0.083185 76 153 0
-0.841607 -0.335229 -0.106017 153 76 0
0.614676 -0.259373 0.288786 76 0 153
-0.357190 0.230030 0.389228 76 153 0
0.116798 0.197357 0.432424 76 0 153
0.137814 -0.340591 0.204983 0 0 255
-0.363087 -0.035684 -0.488276 76 0 153
0.207223 0.160312 0.569881 76 0 153
0.615174 0.086484 -0.441701 76 0 153
-0.070966 0.214389 -0.488272 76 0 153
0.372934 -0.273861 0.441139 153 0 76
-0.853860 -0.099880 -0.443663 153 76 0
0.048987 0.163662 0.313755 153 0 76
-0.169247 0.241522 -0.488135 76 0 153
-0.189845 0.169815 -0.488276 76 0 153
0.269162 0.272650 -0.094583 76 153 0
0.293175 -0.148551 0.420403 0 127 127
0.222845 0.086706 -0.020876 127 0 127
0.463720 -0.340591 0.089230 0 0 255
0.173082 0.116187 -0.030938 153 0 76
-0.853862 -0.159768 0.098754 153 76 0
0.264830 -0.188294 0.569277 153 0 76
-0.553138 -0.101713 -0.488276 76 0 153
0.422416 -0.160645 -0.023369 0 127 127
-0.798652 -0.192985 0.184080 153 76 0
0.323134 -0.076619 0.567554 0 0 255
0.456707 0.019300 0.328388 127 0 127
0.321841 0.272650 -0.045416 76 153 0
0.504721 0.087357 0.284241 204 51 127
0.329055 0.086673 -0.101515 127 0 127
0.257429 0.199246 -0.022230 76 153 0
0.547973 -0.198701 0.125496 153 76 0
0.330162 -0.093240 0.206887 0 127 127
0.435179 -0.163791 -0.488276 76 0 153
0.599801 -0.335731 0.412469 0 0 255
0.410876 -0.271535 0.535527 153 0 76
-0.013081 0.081776 -0.432231 76 0 153
-0.121477 0.229236 0.215277 76 153 0
0.546121 -0.004364 0.447818 0 255 0
0.547495 -0.257679 0.538517 153 76 0
0.593337 0.269925 0.019091 76 153 0
0.049465 0.056959 -0.267780 153 0 76
-0.230486 0.229236 0.023898 76 153 0
0.614507 0.230533 0.165008 76 0 153
0.049465 -0.236570 0.270680 153 0 76
-0.844592 0.265805 -0.301422 153 76 0
-0.292750 0.229236 0.354449 76 153 0
0.494552 -0.273861 0.051166 153 0 76
0.614505 0.125691 -0.159468 76 0 153
0.574645 -0.340425 0.284525 0 0 255
0.180722 -0.079530 -0.136493 0 127 127
0.458960 0.086333 -0.089349 127 0 127
0.139884 0.182806 0.315254 153 0 76
0.177243 0.086523 -0.055216 127 0 127
-0.324142 -0.118442 -0.433220 76 0 153
-0.301126 0.229236 0.041532 76 153 0
0.189675 -0.273861 0.529760 153 0 76
0.614857 -0.068961 0.141723 76 0 153
-0.853862 -0.185493 -0.405394 153 76 0
-0.823970 -0.339222 0.379944 153 76 0
0.392790 -0.160645 0.233115 0 127 127
0.004141 -0.008510 -0.488276 76 0 153
0.187812 0.272650 0.229042 76 153 0
0.176983 0.199408 0.009836 76 153 0
0.548448 -0.176736 0.390062 153 76 0
-0.711862 -0.112674 -0.433879 76 0 153
0.032479 0.272650 -0.200968 76 153 0
-0.799220 -0.024171 0.227534 153 76 0
-0.798564 0.106171 -0.344176 153 76 0
0.221994 -0.093916 0.278779 127 0 127
-0.029198 -0.166332 -0.433885 76 0 153
-0.733807 0.159061 -0.488276 76 0 153
0.548280 -0.031422 0.189994 0 255 0
0.364867 0.199246 0.296312 76 153 0
0.034524 0.154928 -0.488276 76 0 153
-0.308966 0.272650 -0.261422 76 153 0
0.530550 -0.057905 0.267372 76 0 153
0.614251 -0.008979 0.338020 76 0 153
0.470495 0.179818 0.569881 76 0 153
-0.437005 -0.036714 -0.433197 76 0 153
0.358902 -0.322807 0.421336 0 0 255
-0.690285 0.244419 0.420843 76 153 0
0.405747 -0.273861 0.316657 153 0 76
0.449577 -0.273185 0.273895 0 0 255
0.566459 -0.135192 0.422283 76 0 153
0.403486 -0.205516 -0.171418 76 0 153
0.459502 -0.091590 0.217192 127 0 127
0.226243 0.019306 0.140166 127 0 127
-0.799040 0.170081 -0.336758 153 76 0
-0.089453 -0.164273 -0.433848 76 0 153
0.049465 -0.120655 -0.089030 153 0 76
0.401829 0.019300 0.273984 127 0 127
0.049467 0.133857 -0.322902 153 0 76
-0.230715 0.191218 -0.488276 76 0 153
0.343041 -0.340591 -0.059797 0 0 255
-0.107410 0.272650 0.270781 76 153 0
-0.113009 0.229236 -0.101668 76 153 0
0.301042 -0.340591 -0.314514 0 0 255
0.400759 -0.340591 -0.257023 0 0 255
0.548448 -0.076963 0.225489 0 255 0
-0.523101 -0.120065 -0.488276 76 0 153
-0.436162 0.272650 -0.205600 76 153 0
0.049465 -0.187363 -0.292877 153 0 76
-0.682447 0.229236 -0.119893 76 153 0
-0.530663 0.117634 -0.488276 76 0 153
0.421710 -0.340591 0.319203 0 0 255
-0.799437 0.148497 -0.196478 153 76 0
-0.014981 -0.007702 -0.432544 76 0 153
-0.564388 0.229236 -0.207501 76 153 0
-0.472895 0.272650 -0.288113 76 153 0
-0.311486 0.272650 0.319623 76 153 0
-0.452627 0.189800 -0.427942 76 0 153
0.469827 -0.340591 0.230202 0 0 255
0.614177 0.184837 0.062341 76 0 153
0.301334 -0.160645 0.093526 0 127 127
0.185427 -0.340591 0.154745 0 0 255
0.049465 -0.237324 0.213536 153 0 76
0.281023 -0.160645 0.027380 0 127 127
0.419851 -0.263465 -0.145592 0 0 255
-0.595563 0.099843 -0.433005 76 0 153
0.596927 -0.336962 -0.372857 0 0 255
0.143192 -0.000658 0.163357 153 0 76
0.049465 -0.135634 0.234939 153 0 76
0.605627 -0.155268 -0.484806 76 0 153
0.248437 -0.093640 0.169577 0 127 127
-0.337823 0.237821 -0.488162 76 0 153
0.546174 0.193998 0.182798 153 76 0
-0.067208 0.082347 -0.488276 76 0 153
-0.607066 0.272650 0.060316 76 153 0
0.156859 -0.240213 -0.030938 76 0 153
-0.170268 0.229236 0.146166 76 153 0
-0.292670 0.272650 0.062498 76 153 0
0.548448 0.136198 0.239179 153 76 0
-0.799402 -0.093480 -0.203159 153 76 0
0.305056 -0.340591 0.015016 0 0 255
-0.517249 -0.300182 -0.433592 76 0 153
0.398338 0.086030 0.426207 204 51 127
-0.173509 0.229236 -0.236320 76 153 0
-0.249405 0.272650 0.026256 76 153 0
0.049465 -0.044695 -0.329714 153 0 76
0.002301 0.272650 -0.105997 76 153 0
0.117021 -0.271004 0.121968 76 0 153
0.128770 -0.238219 0.054194 153 0 76
0.352016 -0.258108 -0.154748 0 0 255
0.383973 0.088357 0.520226 204 51 127
-0.266753 0.229236 -0.342222 76 153 0
0.516864 -0.273861 0.107848 153 0 76
0.349254 -0.093407 0.092785 0 127 127
0.049465 -0.237978 0.307049 153 0 76
-0.740764 0.228344 0.230979 76 153 0
0.371653 0.199246 0.152552 76 153 0
0.351111 -0.273199 0.375816 0 0 255
0.274286 -0.340591 -0.259666 0 0 255
0.292010 -0.093292 0.099250 0 127 127
-0.227316 0.229236 0.169856 76 153 0
-0.544085 0.272650 -0.068753 76 153 0
0.614177 -0.187998 -0.218301 76 0 153
0.311144 -0.273387 0.214414 0 0 255
0.443694 -0.294482 0.421856 0 0 255
0.049690 -0.302691 0.321526 153 0 76
0.380111 0.198280 0.567580 76 0 153
-0.490794 0.010228 -0.433159 76 0 153
0.128795 -0.273861 0.287950 76 0 153
0.266308 -0.340591 0.054343 0 0 255
-0.240806 0.272650 -0.266634 76 153 0
-0.071726 0.272650 -0.373875 76 153 0
-0.012399 0.272646 -0.426559 76 153 0
0.547983 -0.163167 0.202341 153 76 0
-0.853861 -0.251379 0.359905 153 76 0
0.469984 0.272650 0.047920 76 153 0
0.049466 -0.275284 -0.346181 153 0 76
0.091625 -0.111398 0.422287 153 0 76
0.175017 -0.340591 -0.086376 0 0 255
-0.799451 -0.265823 -0.075858 153 76 0
0.087411 0.272648 0.356868 76 153 0
-0.798452 0.048644 -0.337263 153 76 0
0.486966 -0.128710 0.421806 0 127 127
-0.798453 -0.122393 0.213133 153 76 0
0.546121 0.143670 0.532690 153 76 0
0.323320 -0.340591 -0.210861 0 0 255
0.548225 0.151819 0.376920 153 76 0
-0.767540 0.272650 0.327056 76 153 0
0.614510 -0.175576 0.121944 76 0 153
0.515384 -0.073010 0.191885 76 0 153
-0.820837 -0.338242 -0.075223 153 76 0
0.614325 0.114885 -0.105565 76 0 153
-0.620761 0.229236 0.036272 76 153 0
-0.188460 0.272650 0.131168 76 153 0
0.356188 -0.093254 0.362162 0 127 127
-0.798688 0.124943 -0.378983 153 76 0
0.049516 -0.293461 0.230185 153 0 76
-0.798979 -0.056552 -0.102271 153 76 0
0.161094 -0.092589 0.238952 127 0 127
0.328966 -0.201129 -0.171585 76 0 153
0.388994 0.151810 -0.032266 153 0 76
-0.853862 0.048162 -0.328073 153 76 0
-0.791794 0.204346 0.186843 153 76 0
0.049465 -0.024899 0.188561 153 0 76
0.614338 -0.017434 0.260044 76 0 153
-0.238116 0.062751 -0.488276 76 0 153
0.441705 -0.273861 0.239526 153 0 76
-0.697989 0.268656 -0.480596 76 153 0
-0.021321 0.272650 0.076242 76 153 0
0.613843 -0.226360 -0.465578 76 0 153
0.536745 -0.093915 0.313827 127 0 127
-0.492344 0.145826 -0.432881 76 0 153
0.249039 -0.273861 0.471909 153 0 76
-0.798453 -0.132474 0.318525 153 76 0
0.514338 0.188369 0.111714 76 153 0
-0.113383 0.229236 -0.279246 76 153 0
0.049465 0.091252 -0.098574 153 0 76
0.614888 -0.018073 -0.454199 76 0 153
-0.719827 0.272645 0.361667 76 153 0
-0.605231 0.002332 -0.433678 76 0 153
-0.853862 -0.223861 0.138242 153 76 0
-0.491594 0.229238 0.368844 76 153 0
-0.339390 0.272650 -0.335183 76 153 0
0.049492 0.022050 -0.358342 153 0 76
0.116252 0.014815 0.378900 255 0 0
-0.458856 0.229236 -0.241049 76 153 0
0.548447 -0.188488 0.158857 153 76 0
0.291161 -0.340591 0.292385 0 0 255
-0.362784 -0.257743 -0.488276 76 0 153
0.479467 -0.249393 -0.160649 76 0 153
-0.853862 -0.220442 0.232598 153 76 0
-0.787440 0.228397 0.421005 76 153 0
0.067463 -0.337411 0.214183 0 0 255
-0.236914 0.245618 -0.488105 76 0 153
-0.853861 0.064485 -0.430939 153 76 0
-0.186423 0.272650 0.060202 76 153 0
0.089028 0.272650 0.152199 76 153 0
-0.799451 -0.186489 -0.148884 153 76 0
0.264532 -0.273185 -0.075698 0 0 255
0.487096 0.019437 0.091960 127 0 127
0.158722 -0.091590 0.363126 127 0 127
-0.790157 0.272650 0.297938 76 153 0
0.146865 0.001640 0.099780 153 0 76
0.547447 -0.062033 0.480624 0 255 0
0.144495 -0.246946 0.569881 153 0 76
0.330222 0.088357 0.039407 204 51 127
0.193015 -0.160576 0.175054 0 127 127
0.131545 -0.242913 0.271297 153 0 76
-0.200143 -0.273925 -0.432869 76 0 153
0.365442 0.199247 0.357772 76 153 0
-0.845653 -0.331785 -0.360260 153 76 0
-0.799434 -0.003557 0.320572 153 76 0
-0.645122 0.272650 -0.054953 76 153 0
0.614177 0.135407 0.253037 76 0 153
0.049465 0.084851 0.234399 153 0 76
-0.853862 -0.064299 -0.143577 153 76 0
-0.153816 0.065230 -0.433867 76 0 153
-0.819985 0.272249 -0.189486 76 153 0
-0.702809 -0.247600 -0.433871 76 0 153
-0.194329 0.013343 -0.488276 76 0 153
0.140952 -0.173439 0.216404 153 0 76
0.367496 -0.230258 -0.488276 76 0 153
-0.799451 -0.210011 -0.013954 153 76 0
-0.853862 0.049335 -0.213066 153 76 0
0.547108 0.087812 0.405521 204 51 127
-0.432882 -0.067095 -0.488276 76 0 153
0.311193 0.208199 0.420212 76 153 0
0.196658 -0.229627 -0.488276 76 0 153
0.293253 -0.044117 -0.488276 76 0 153
0.615176 -0.115280 0.279453 76 0 153
0.049465 -0.069808 -0.104158 153 0 76
-0.655763 0.229238 0.364765 76 153 0
0.049465 -0.130707 0.345257 153 0 76
-0.684741 -0.088902 -0.488276 76 0 153
0.285069 0.023252 0.568046 0 0 255
0.070048 -0.338185 -0.010622 0 0 255
0.049465 -0.254055 -0.134528 153 0 76
-0.322530 0.272650 0.018144 76 153 0
0.275908 -0.273861 0.399371 153 0 76
0.117557 -0.016346 0.432633 255 0 0
0.481909 0.082708 0.569006 76 0 153
-0.308559 0.005505 -0.488276 76 0 153
0.251068 -0.063881 0.569881 0 0 255
-0.189413 -0.104055 -0.433806 76 0 153
0.209723 0.086030 0.284933 204 51 127
0.432279 -0.088343 0.565167 0 0 255
0.051789 -0.321704 -0.107923 153 0 76
-0.002381 0.061370 -0.488276 76 0 153
0.537046 -0.199073 -0.107466 76 0 153
0.049656 -0.300799 -0.173521 153 0 76
0.342393 0.086030 -0.006793 204 51 127
0.213910 -0.273861 0.457496 153 0 76
0.330533 0.019300 0.227079 127 0 127
0.244704 -0.090322 -0.108349 0 127 127
0.049465 -0.119624 0.037505 153 0 76
-0.600802 0.229236 -0.257665 76 153 0
0.410272 0.086703 0.364732 127 0 127
0.049466 0.131023 0.291535 153 0 76
-0.200548 0.272650 0.262444 76 153 0
0.261256 0.272650 0.124911 76 153 0
-0.853862 -0.116675 -0.385944 153 76 0
0.305387 -0.160645 0.258128 0 127 127
0.546727 -0.301647 0.422278 0 0 255
-0.818005 -0.337421 0.241498 153 76 0
0.554569 0.118926 -0.488276 76 0 153
-0.853862 0.000277 -0.152569 153 76 0
0.443179 -0.273362 -0.124664 0 0 255
0.614180 0.191233 0.208805 76 0 153
0.393566 0.086706 0.211807 127 0 127
0.340790 -0.273861 0.275424 153 0 76
0.394531 -0.091590 0.185351 127 0 127
0.435505 -0.340591 -0.267393 0 0 255
0.614804 -0.255529 0.331269 76 0 153
-0.043932 0.272650 0.203576 76 153 0
0.222711 -0.093812 0.131843 0 127 127
-0.683628 0.272650 0.129545 76 153 0
-0.800452 -0.252827 -0.488253 76 0 153
0.062194 -0.340479 -0.455087 76 0 153
-0.853861 -0.275790 0.287760 153 76 0
-0.479228 0.229236 -0.098150 76 153 0
0.141339 -0.068553 0.056969 153 0 76
0.235067 -0.093694 0.405549 0 127 127
-0.399402 0.229236 0.111714 76 153 0
-0.610059 -0.181290 -0.488276 76 0 153
-0.681475 -0.277865 -0.433671 76 0 153
0.486279 0.272650 -0.017174 76 153 0
0.276274 -0.266708 -0.140050 0 0 255
-0.581919 0.272650 0.222682 76 153 0
0.122507 0.090639 0.260263 76 0 153
0.387956 0.272650 -0.361692 76 153 0
-0.361154 0.030794 -0.488276 76 0 153
0.043054 -0.271037 -0.488276 76 0 153
-0.853721 0.234519 -0.211676 153 76 0
0.520502 -0.172539 0.264426 76 0 153
-0.298137 0.229236 -0.224475 76 153 0
-0.432963 -0.252605 -0.488276 76 0 153
0.525857 0.272650 0.159606 76 153 0
0.314502 0.272639 0.373905 76 153 0
0.424363 0.272650 -0.224100 76 153 0
0.614177 0.027959 0.216068 76 0 153
-0.480379 0.053271 -0.432908 76 0 153
-0.022639 0.272650 0.029768 76 153 0
0.264588 -0.093240 -0.012422 0 127 127
0.201062 -0.160638 -0.014729 0 127 127
-0.688117 0.213184 -0.414100 76 0 153
0.375817 0.019300 0.147899 127 0 127
0.044674 0.195586 -0.004199 153 0 76
-0.830027 -0.327839 -0.486007 76 0 153
0.546121 0.006788 0.135172 0 255 0
0.539033 0.153940 0.125589 76 0 153
0.519487 0.272650 -0.010459 76 153 0
-0.459138 0.229236 -0.182485 76 153 0
0.521752 -0.000831 0.100569 76 0 153
-0.853862 0.127522 0.234148 153 76 0
0.208437 -0.093354 0.071786 0 127 127
0.527220 -0.247967 0.308103 76 0 153
0.490586 -0.160443 -0.065952 0 127 127
0.187852 0.199337 0.050828 76 153 0
-0.329838 0.272650 0.231399 76 153 0
0.275975 -0.273185 0.011585 0 0 255
-0.374349 0.227823 -0.388981 76 153 0
0.230720 0.199246 0.108678 76 153 0
-0.845759 -0.331594 -0.296161 153 76 0
0.307761 -0.280473 -0.488276 76 0 153
-0.853809 -0.283234 -0.451966 153 76 0
-0.481213 0.272650 0.269371 76 153 0
0.410530 0.272650 0.123496 76 153 0
0.255726 -0.340591 -0.211922 0 0 255
0.392001 0.088357 0.041407 204 51 127
-0.471882 0.229236 0.311403 76 153 0
0.139158 -0.030099 -0.155598 153 0 76
0.116194 0.162663 0.326055 76 0 153
-0.853734 -0.297417 -0.406191 153 76 0
0.535517 -0.072299 0.420805 76 0 153
0.059252 -0.203316 -0.488276 76 0 153
0.450762 -0.272082 -0.031472 76 0 153
0.182875 0.086565 0.336051 127 0 127
-0.470142 0.252423 0.421827 76 153 0
-0.144490 0.272650 0.328135 76 153 0
0.379417 -0.193910 0.567554 153 0 76
-0.623253 0.229236 -0.203207 76 153 0
0.203721 -0.273801 0.264203 0 0 255
0.048099 -0.332745 -0.486025 76 0 153
0.458893 -0.237987 0.567554 153 0 76
-0.023080 0.229236 0.158837 76 153 0
-0.196112 0.272650 0.022386 76 153 0
0.614935 -0.261481 0.392702 76 0 153
0.518134 -0.277326 0.568453 153 0 76
0.178100 0.086030 0.520317 204 51 127
-0.493069 0.229236 -0.161682 76 153 0
0.546121 -0.234315 0.206807 153 76 0
0.480691 -0.340505 0.386963 0 0 255
0.049467 0.134301 -0.045955 153 0 76
-0.645209 0.272650 0.124714 76 153 0
-0.722589 0.272650 -0.033203 76 153 0
0.192546 -0.340591 -0.039428 0 0 255
0.117522 0.162111 0.537540 76 0 153
-0.474521 0.272650 0.153046 76 153 0
0.049468 -0.101095 0.364496 153 0 76
0.144123 -0.273861 0.084129 153 0 76
0.290245 0.199246 0.238765 76 153 0
0.116194 -0.044829 0.482180 255 0 0
0.171619 -0.340591 -0.120717 0 0 255
-0.144520 0.272650 -0.183872 76 153 0
0.193193 -0.273241 -0.048920 0 0 255
0.404304 -0.271535 0.368617 153 0 76
0.159606 -0.150083 0.420845 0 127 127
-0.682571 -0.203484 -0.488276 76 0 153
0.498167 0.153441 0.567554 76 0 153
0.442549 0.199246 0.163979 76 153 0
0.511152 -0.340591 -0.316845 0 0 255
-0.684270 0.272650 0.238115 76 153 0
0.432964 -0.091590 0.424360 127 0 127
-0.210095 0.272640 0.370594 76 153 0
0.118196 -0.043748 0.312063 255 0 0
0.311278 -0.160645 0.374819 0 127 127
-0.845476 0.264223 -0.035364 153 76 0
0.283127 -0.091590 0.342208 127 0 127
-0.398108 0.192891 -0.488276 76 0 153
0.274880 -0.093240 -0.051284 0 127 127
-0.788185 0.272650 0.261791 76 153 0
0.191538 0.087357 0.148809 204 51 127
0.049465 -0.026882 -0.153742 153 0 76
-0.042077 -0.222687 -0.488276 76 0 153
-0.853862 -0.264127 0.117484 153 76 0
-0.673458 0.229236 -0.008966 76 153 0
0.184251 -0.340591 0.117424 0 0 255
0.146178 -0.031858 0.567554 0 0 255
0.489198 -0.340591 -0.416163 0 0 255
-0.091950 -0.314764 -0.433327 76 0 153
-0.318935 0.229236 -0.285414 76 153 0
-0.148196 0.220050 -0.404929 76 153 0
0.185387 0.272371 0.394539 76 153 0
0.614507 0.231130 -0.089003 76 0 153
0.136403 -0.136119 -0.488276 76 0 153
0.079112 -0.340290 -0.111000 0 0 255
-0.746437 -0.216277 -0.488276 76 0 153
0.559889 -0.202388 -0.488227 76 0 153
0.180977 -0.160484 0.049621 0 127 127
0.153680 -0.077317 0.277465 153 0 76
0.547140 0.088099 0.527650 204 51 127
-0.597579 -0.325855 -0.486881 76 0 153
0.348703 -0.007521 -0.162121 76 0 153
0.130106 -0.340591 0.134688 0 0 255
-0.437285 0.229236 -0.131303 76 153 0
0.352448 -0.271535 0.156276 153 0 76
0.615176 0.026332 -0.360167 76 0 153
-0.347613 0.272650 -0.031347 76 153 0
-0.853862 0.180774 -0.348772 153 76 0
-0.453033 0.229236 0.100639 76 153 0
-0.714421 -0.311748 -0.487971 76 0 153
-0.799096 0.000219 -0.052087 153 76 0
0.542049 -0.340591 -0.244223 0 0 255
-0.532816 0.229236 -0.085812 76 153 0
0.140202 0.102543 -0.101876 153 0 76
0.267275 0.272650 -0.248396 76 153 0
-0.853862 -0.263020 -0.090402 153 76 0
-0.853861 0.107413 -0.428897 153 76 0
-0.656435 0.272642 -0.437737 76 153 0
-0.853862 -0.116182 0.002154 153 76 0
0.192695 -0.093916 0.147551 127 0 127
0.128147 0.088043 0.146510 204 51 127
-0.853862 -0.025282 -0.084014 153 76 0
0.225137 -0.160573 -0.106491 0 127 127
0.534719 -0.019848 0.068320 76 0 153
0.243783 0.088357 0.536019 204 51 127
-0.827740 0.209439 -0.487792 76 0 153
0.116212 0.094886 0.525272 76 0 153
0.049465 0.010501 -0.010729 153 0 76
0.328127 -0.160645 -0.073593 0 127 127
0.049465 -0.005780 0.290046 153 0 76
0.614176 -0.247352 -0.151769 76 0 153
-0.828317 0.085806 -0.487739 76 0 153
0.131018 0.164941 -0.118137 153 0 76
-0.853862 0.194618 0.065347 153 76 0
0.116194 -0.064124 0.404210 255 0 0
0.510651 0.174424 -0.488276 76 0 153
-0.036972 0.272650 -0.219788 76 153 0
0.118521 0.115436 0.197433 76 0 153
-0.370453 0.272650 -0.104691 76 153 0
0.089796 0.267777 -0.482461 76 153 0
0.335558 -0.097388 -0.488276 76 0 153
0.124398 -0.205411 0.108652 153 0 76
-0.798988 -0.046550 0.074436 153 76 0
0.607592 -0.330389 0.277752 76 0 153
-0.495620 0.272650 -0.016074 76 153 0
0.546121 -0.008934 0.380431 0 255 0
0.082870 0.153261 0.422321 153 0 76
0.165432 0.194496 -0.032218 153 0 76
-0.771750 0.272226 0.400054 76 153 0
-0.769738 0.272650 -0.139164 76 153 0
0.161509 -0.273861 0.201409 153 0 76
0.562106 -0.340533 0.169998 0 0 255
0.506526 0.268913 -0.480052 76 153 0
-0.575858 0.272451 -0.457265 76 153 0
-0.542471 0.272650 0.159887 76 153 0
0.614394 0.212011 0.346189 76 0 153
0.345477 0.102593 -0.488276 76 0 153
0.331182 -0.340591 0.280165 0 0 255
0.088723 -0.076112 0.422238 153 0 76
0.490360 0.272650 0.211562 76 153 0
0.601691 -0.335561 -0.171656 0 0 255
0.386500 0.039656 -0.488276 76 0 153
0.266429 0.272650 0.182523 76 153 0
0.546121 -0.210458 0.313666 153 76 0
0.614740 -0.085391 0.075908 76 0 153
-0.799453 -0.288165 -0.015739 153 76 0
0.349228 0.019300 0.000625 127 0 127
0.049465 -0.005304 0.076965 153 0 76
0.506172 -0.092391 0.274188 127 0 127
0.613220 0.190514 -0.474894 76 0 153
0.261200 -0.093916 0.044608 127 0 127
0.420747 -0.093916 0.466471 127 0 127
0.295003 -0.160645 0.160754 0 127 127
-0.853862 -0.071680 -0.009087 153 76 0
0.049466 -0.271721 -0.068296 153 0 76
0.183145 -0.273381 -0.113077 0 0 255
-0.202349 -0.197615 -0.433157 76 0 153
-0.437287 -0.136832 -0.488276 76 0 153
0.119889 0.272650 -0.382427 76 153 0
0.614177 -0.222506 -0.216876 76 0 153
-0.125462 0.272647 0.358457 76 153 0
-0.523829 0.272650 -0.375792 76 153 0
-0.853861 0.213904 -0.284106 153 76 0
-0.807279 -0.268391 0.418538 153 76 0
-0.209053 0.272650 -0.184638 76 153 0
0.049465 -0.105708 -0.243100 153 0 76
0.321273 0.272636 -0.449587 76 153 0
-0.324803 -0.206691 -0.488276 76 0 153
0.432230 0.087357 0.313062 204 51 127
-0.708653 0.229238 -0.304581 76 153 0
0.614412 -0.281554 -0.257201 76 0 153
-0.592171 0.229236 0.336111 76 153 0
0.276569 0.019300 0.124570 127 0 127
-0.554924 0.229236 0.345441 76 153 0
-0.731243 0.114862 -0.488276 76 0 153
0.201707 -0.091590 0.474323 127 0 127
0.306427 0.272650 -0.352630 76 153 0
-0.397114 0.001477 -0.432985 76 0 153
0.614177 -0.224441 -0.378412 76 0 153
-0.798979 0.097212 -0.248032 153 76 0
0.530304 -0.243754 -0.041274 76 0 153
0.615176 0.027226 -0.271554 76 0 153
-0.853603 0.244190 0.250817 153 76 0
0.217719 0.018401 -0.101472 127 0 127
0.536815 0.164604 0.301904 76 0 153
0.522948 0.086030 0.243998 204 51 127
0.391127 0.019300 0.243875 127 0 127
0.049465 -0.258705 -0.234526 153 0 76
0.440483 -0.160486 0.391621 0 127 127
0.572373 -0.340444 0.216311 0 0 255
0.456855 -0.160645 0.180104 0 127 127
0.134806 -0.181015 0.138062 153 0 76
0.464209 0.086030 0.217999 204 51 127
0.049466 -0.269783 0.171429 153 0 76
0.335318 -0.340591 0.059256 0 0 255
-0.798453 -0.236087 0.353532 153 76 0
0.049465 -0.063237 -0.235560 153 0 76
-0.853862 0.015419 -0.275987 153 76 0
0.381807 0.100821 0.568998 76 0 153
-0.235091 0.229236 -0.278092 76 153 0
0.533577 0.116598 0.089640 76 0 153
0.205175 -0.102004 -0.488276 76 0 153
0.282352 -0.271535 0.535665 153 0 76
0.046395 0.190103 0.268350 153 0 76
-0.254825 0.090205 -0.433867 76 0 153
0.054271 0.075000 0.414223 153 0 76
0.613069 0.252443 -0.164516 76 0 153
-0.600705 0.272650 -0.221856 76 153 0
0.486598 0.019435 0.276456 127 0 127
-0.798453 -0.161614 0.254050 153 76 0
0.614474 -0.069589 -0.163288 76 0 153
0.049465 -0.070792 -0.026146 153 0 76
-0.672994 0.272650 -0.224830 76 153 0
-0.740497 0.228366 -0.282124 76 153 0
-0.547774 0.272650 -0.396726 76 153 0
-0.498115 0.272404 0.393287 76 153 0
0.458035 -0.340591 0.353290 0 0 255
0.436963 -0.340591 0.204544 0 0 255
0.395224 -0.055389 0.569289 0 0 255
0.116194 -0.226321 0.366570 76 0 153
0.361255 -0.160645 0.256815 0 127 127
-0.834172 -0.116543 0.420874 153 76 0
-0.517410 -0.338925 -0.452044 76 0 153
-0.788979 0.209578 0.066528 153 76 0
0.177266 -0.273768 0.106427 0 0 255
0.442205 -0.338626 -0.476564 76 0 153
0.304112 0.119274 -0.488276 76 0 153
-0.524639 0.272650 -0.310526 76 153 0
-0.798454 -0.104278 0.368160 153 76 0
0.214289 0.199246 -0.043345 76 153 0
0.614507 0.235400 0.073601 76 0 153
-0.126676 -0.013594 -0.488276 76 0 153
0.614177 0.105081 0.160018 76 0 153
-0.567287 0.236756 0.413149 76 153 0
-0.268991 0.272650 -0.102303 76 153 0
-0.387082 0.272650 -0.253075 76 153 0
-0.080324 0.272650 0.064523 76 153 0
0.281128 -0.273861 0.295009 153 0 76
0.401089 0.272650 0.076090 76 153 0
-0.853862 0.073675 -0.111815 153 76 0
0.615176 0.089607 -0.345569 76 0 153
-0.149533 -0.147750 -0.433777 76 0 153
-0.449921 -0.282827 -0.488276 76 0 153
-0.060721 0.272645 -0.430834 76 153 0
0.067506 0.272650 -0.108332 76 153 0
0.615100 -0.009151 -0.247846 76 0 153
0.295122 0.047123 0.422042 127 0 127
0.228591 -0.225378 -0.171583 76 0 153
-0.851147 0.254072 0.316143 153 76 0
0.135597 -0.064553 0.339870 153 0 76
0.019303 0.272650 0.174832 76 153 0
0.115118 0.096026 0.421479 153 0 76
0.477621 -0.340591 0.159620 0 0 255
-0.222268 0.272650 -0.089186 76 153 0
0.049465 -0.012025 0.346487 153 0 76
0.449693 -0.340591 -0.308637 0 0 255
-0.348536 0.145609 -0.433503 76 0 153
-0.675758 0.272650 0.010413 76 153 0
0.531651 0.171119 0.042757 76 0 153
0.614501 -0.066963 -0.215872 76 0 153
0.370809 0.086703 0.367583 127 0 127
0.144564 0.088356 0.284435 204 51 127
0.306774 -0.093240 0.000814 0 127 127
0.218921 -0.008113 0.567554 0 0 255
0.233847 -0.118545 -0.488276 76 0 153
0.173714 -0.273861 0.407962 153 0 76
-0.247785 0.272650 -0.384322 76 153 0
0.450997 -0.091590 0.064233 127 0 127
-0.853862 0.119597 -0.373288 153 76 0
-0.849110 0.257717 0.028014 153 76 0
0.118249 -0.044801 0.451110 255 0 0
-0.244116 0.272639 -0.444338 76 153 0
0.362108 -0.160645 -0.094296 0 127 127
-0.799451 0.070011 0.062688 153 76 0
0.614599 -0.057445 -0.098431 76 0 153
0.214629 -0.273861 0.042147 153 0 76
-0.249345 0.190925 -0.428448 76 0 153
-0.377010 0.272650 0.076664 76 153 0
-0.853859 0.160783 0.383926 153 76 0
-0.853862 -0.046657 0.054050 153 76 0
0.071278 -0.338612 0.102468 0 0 255
-0.853341 0.059378 0.401120 153 76 0
0.118521 0.115252 0.236441 76 0 153
-0.843783 -0.156535 -0.486242 76 0 153
-0.072241 -0.026639 -0.488276 76 0 153
0.387641 -0.340591 0.214761 0 0 255
0.614528 0.209519 0.377507 76 0 153
0.133794 -0.340591 0.257390 0 0 255
-0.688095 0.175757 -0.488276 76 0 153
-0.573475 0.272650 -0.151194 76 153 0
-0.710592 0.272650 0.114125 76 153 0
-0.187121 -0.176120 -0.488276 76 0 153
0.525608 -0.178414 0.226840 76 0 153
0.049923 -0.314816 -0.227700 153 0 76
0.288931 -0.093916 0.274815 127 0 127
0.399674 -0.224642 -0.032266 76 0 153
0.416394 -0.340591 -0.092001 0 0 255
0.614177 0.156831 0.130720 76 0 153
0.124809 -0.021137 0.001458 153 0 76
0.049465 -0.064001 0.248749 153 0 76
0.220142 -0.220083 -0.030938 76 0 153
0.502230 -0.340591 -0.005595 0 0 255
0.265597 0.199246 0.112373 76 153 0
-0.342043 -0.027683 -0.433556 76 0 153
0.140791 -0.258734 0.414011 153 0 76
-0.671248 0.272650 -0.100923 76 153 0
-0.397794 0.272444 -0.457516 76 153 0
-0.798695 -0.114095 -0.387728 153 76 0
-0.799371 0.188283 -0.087740 153 76 0
-0.366914 0.229236 -0.344400 76 153 0
-0.853862 0.148439 -0.392702 153 76 0
-0.190752 0.272650 -0.101163 76 153 0
0.614207 0.156478 -0.162567 76 0 153
0.451098 0.086288 -0.050571 127 0 127
0.049465 -0.252253 0.141077 153 0 76
-0.013868 0.187814 -0.428178 76 0 153
-0.781338 -0.326266 -0.486829 76 0 153
0.019724 0.272650 0.126910 76 153 0
0.539327 0.086043 0.153306 204 51 127
-0.848408 -0.041335 -0.480022 153 76 0
0.363191 -0.273185 -0.095660 0 0 255
0.048765 0.039515 -0.488276 76 0 153
-0.526776 0.229402 -0.377710 76 153 0
0.267433 -0.172499 -0.155919 76 0 153
0.049465 -0.161097 -0.227569 153 0 76
0.509351 0.086034 0.552748 204 51 127
0.614456 -0.318146 0.342050 76 0 153
0.030489 0.272650 0.083234 76 153 0
0.528424 0.088356 0.201780 204 51 127
-0.528825 0.229236 -0.177541 76 153 0
-0.853862 -0.174246 0.330472 153 76 0
-0.853860 0.199202 0.369130 153 76 0
-0.138549 -0.045713 -0.433867 76 0 153
0.235529 -0.271535 0.341136 153 0 76
