ply
format ascii 1.0
element vertex 630
property float x
property float y
property float z
property float nx
property float ny
property float nz
property uchar red
property uchar green
property uchar blue
property float opacity
end_header
0.611464 0.153096 -0.048726 1.000000 0.000000 0.000000 88 27 10 1.000000
0.127620 -0.096952 0.045447 0.000000 1.000000 0.000000 255 255 255 1.000000
-0.548453 0.268938 -0.096663 0.000000 1.000000 0.000000 72 209 204 0.500000
0.228777 -0.272698 0.328895 0.000000 1.000000 0.000000 175 102 37 1.000000
0.610028 -0.239979 0.418762 0.000000 0.000000 1.000000 94 32 9 1.000000
0.399328 -0.276897 -0.167737 0.000000 1.000000 0.000000 255 255 255 1.000000
-0.033357 0.262940 0.109711 0.000000 1.000000 0.000000 89 30 12 1.000000
-0.798757 0.102020 -0.484565 0.000000 0.000000 -1.000000 91 31 9 1.000000
0.611464 -0.042069 0.195360 -1.000000 0.000000 0.000000 255 255 255 1.000000
0.611464 0.038501 -0.274121 -1.000000 0.000000 0.000000 255 255 255 1.000000
0.292559 0.202958 0.353844 0.000000 -1.000000 0.000000 255 255 255 1.000000
0.053177 -0.039411 -0.369711 -1.000000 0.000000 0.000000 89 30 10 1.000000
0.524615 -0.336879 -0.044834 0.000000 -1.000000 0.000000 255 255 255 1.000000
0.341124 0.023012 0.235759 0.000000 1.000000 0.000000 255 255 255 1.000000
0.115890 0.268938 0.324611 0.000000 1.000000 0.000000 72 209 204 0.500000
0.168823 0.023012 0.381647 0.000000 1.000000 0.000000 255 255 255 1.000000
0.532086 0.082994 0.026322 0.000000 -1.000000 0.000000 255 255 255 1.000000
0.289753 -0.276897 -0.124666 0.000000 -1.000000 0.000000 255 255 255 1.000000
-0.199681 0.268938 -0.073843 0.000000 -1.000000 0.000000 72 209 204 0.500000
-0.616844 0.158128 -0.484565 0.000000 0.000000 -1.000000 90 29 12 1.000000
-0.368082 0.262940 0.077286 0.000000 1.000000 0.000000 91 31 8 1.000000
0.274064 -0.336879 -0.478212 0.000000 1.000000 0.000000 255 255 255 1.000000
0.473685 0.202958 0.418539 0.000000 -1.000000 0.000000 255 255 255 1.000000
-0.746512 -0.052680 -0.436580 0.000000 0.000000 1.000000 92 28 12 1.000000
0.053177 -0.189983 0.407172 -1.000000 0.000000 0.000000 95 28 8 1.000000
-0.332407 0.268938 -0.071833 0.000000 1.000000 0.000000 249 239 230 1.000000
0.125763 -0.247589 -0.181057 0.000000 0.000000 -1.000000 255 255 255 1.000000
0.551482 -0.010548 0.407123 -1.000000 0.000000 0.000000 255 255 255 1.000000
0.291107 -0.272698 0.154769 0.000000 1.000000 0.000000 170 93 35 1.000000
0.424738 -0.272698 0.564438 0.000000 1.000000 0.000000 195 121 60 1.000000
0.388885 0.087193 0.151636 0.000000 -1.000000 0.000000 169 92 36 1.000000
-0.447198 -0.229736 -0.436580 0.000000 0.000000 -1.000000 255 255 255 1.000000
0.425615 0.268938 0.009042 0.000000 1.000000 0.000000 72 209 204 0.500000
0.341938 -0.276897 0.024108 0.000000 1.000000 0.000000 255 255 255 1.000000
-0.802164 0.109048 0.222315 -1.000000 0.000000 0.000000 255 255 255 1.000000
-0.804409 0.172564 0.418762 0.000000 0.000000 1.000000 88 28 8 1.000000
-0.015081 0.232949 -0.108720 0.000000 -1.000000 0.000000 89 29 9 1.000000
0.248090 -0.272698 0.470228 0.000000 1.000000 0.000000 173 97 36 1.000000
-0.192794 0.182773 -0.436580 0.000000 0.000000 -1.000000 255 255 255 1.000000
0.206028 0.262940 -0.159510 0.000000 1.000000 0.000000 97 30 9 1.000000
0.053177 -0.075868 -0.255846 -1.000000 0.000000 0.000000 96 28 11 1.000000
-0.258084 0.268938 0.127737 0.000000 -1.000000 0.000000 72 209 204 0.500000
0.133462 -0.094309 0.568717 0.000000 0.000000 1.000000 157 82 41 1.000000
0.053177 0.168293 -0.350689 -1.000000 0.000000 0.000000 92 28 12 1.000000
-0.850150 -0.066129 0.306665 1.000000 0.000000 0.000000 255 255 255 1.000000
-0.850150 -0.003822 0.105899 1.000000 0.000000 0.000000 255 255 255 1.000000
0.117358 0.139521 0.475603 1.000000 0.000000 0.000000 179 107 44 1.000000
0.334726 -0.167416 0.568717 0.000000 0.000000 -1.000000 255 255 255 1.000000
0.611464 0.263709 0.125065 -1.000000 0.000000 0.000000 61 91 5 0.500000
0.182594 -0.156933 0.319570 0.000000 1.000000 0.000000 255 255 255 1.000000
-0.802164 -0.085328 -0.255734 -1.000000 0.000000 0.000000 255 255 255 1.000000
-0.597013 0.262967 0.418762 0.000000 0.000000 -1.000000 61 91 5 0.500000
0.053177 -0.058475 0.402801 1.000000 0.000000 0.000000 255 255 255 1.000000
0.117358 0.191868 -0.023316 -1.000000 0.000000 0.000000 174 101 36 1.000000
0.058378 -0.331725 0.418762 0.000000 0.000000 -1.000000 255 255 255 1.000000
0.336529 0.025322 0.418762 0.000000 0.000000 1.000000 101 28 10 1.000000
0.216832 0.202958 0.180461 0.000000 -1.000000 0.000000 255 255 255 1.000000
-0.802164 -0.214952 -0.252142 -1.000000 0.000000 0.000000 255 255 255 1.000000
0.547284 -0.174634 0.508528 -1.000000 0.000000 0.000000 178 106 46 1.000000
0.405648 -0.199361 -0.031102 0.000000 0.000000 1.000000 182 114 51 1.000000
-0.349491 0.268938 -0.229917 0.000000 -1.000000 0.000000 72 209 204 0.500000
0.353859 -0.156933 0.341345 0.000000 1.000000 0.000000 255 255 255 1.000000
0.610800 0.268938 -0.210057 0.000000 -1.000000 0.000000 72 209 204 0.500000
0.168740 -0.336879 -0.229177 0.000000 1.000000 0.000000 255 255 255 1.000000
0.479805 -0.336879 -0.383983 0.000000 -1.000000 0.000000 255 255 255 1.000000
-0.823422 0.268938 -0.342596 0.000000 -1.000000 0.000000 72 209 204 0.500000
-0.850150 0.065021 -0.377034 -1.000000 0.000000 0.000000 93 29 13 1.000000
-0.122696 -0.241236 -0.484565 0.000000 0.000000 1.000000 255 255 255 1.000000
0.098279 -0.003455 -0.484565 0.000000 0.000000 1.000000 255 255 255 1.000000
-0.534804 0.268938 0.214660 0.000000 -1.000000 0.000000 72 209 204 0.500000
0.135800 -0.336879 -0.020267 0.000000 -1.000000 0.000000 255 255 255 1.000000
-0.744744 0.183259 -0.436580 0.000000 0.000000 -1.000000 255 255 255 1.000000
-0.735459 -0.238298 -0.484565 0.000000 0.000000 -1.000000 99 32 11 1.000000
-0.850150 -0.106780 0.199765 -1.000000 0.000000 0.000000 102 29 8 1.000000
-0.520718 0.268938 -0.248694 0.000000 1.000000 0.000000 72 209 204 0.500000
-0.850150 -0.050637 -0.358414 -1.000000 0.000000 0.000000 102 29 10 1.000000
0.498503 0.268938 -0.396041 0.000000 -1.000000 0.000000 72 209 204 0.500000
0.135461 0.185070 -0.181057 0.000000 0.000000 -1.000000 255 255 255 1.000000
0.217795 -0.006007 -0.031102 0.000000 0.000000 1.000000 182 112 49 1.000000
0.611464 -0.186347 -0.162409 -1.000000 0.000000 0.000000 255 255 255 1.000000
0.521758 -0.272698 0.345019 0.000000 1.000000 0.000000 176 98 37 1.000000
0.293175 -0.156933 0.189871 0.000000 1.000000 0.000000 255 255 255 1.000000
0.144144 -0.091748 -0.181057 0.000000 0.000000 1.000000 255 255 255 1.000000
0.178289 0.193017 -0.484565 0.000000 0.000000 -1.000000 83 27 16 1.000000
-0.648778 0.232949 -0.091099 0.000000 1.000000 0.000000 255 255 255 1.000000
-0.850150 -0.057107 -0.077454 -1.000000 0.000000 0.000000 98 29 10 1.000000
0.341913 0.204786 -0.484565 0.000000 0.000000 1.000000 255 255 255 1.000000
0.542844 0.201276 -0.484565 0.000000 0.000000 1.000000 255 255 255 1.000000
0.410098 -0.276897 0.352550 0.000000 1.000000 0.000000 255 255 255 1.000000
0.117358 0.128284 0.205021 -1.000000 0.000000 0.000000 167 93 34 1.000000
0.567088 -0.336879 -0.231375 0.000000 -1.000000 0.000000 255 255 255 1.000000
0.539577 0.023012 0.152547 0.000000 -1.000000 0.000000 255 255 255 1.000000
0.527910 -0.085241 0.568717 0.000000 0.000000 -1.000000 255 255 255 1.000000
-0.464220 -0.055232 -0.436580 0.000000 0.000000 1.000000 100 30 10 1.000000
0.146149 -0.336879 0.309755 0.000000 1.000000 0.000000 255 255 255 1.000000
0.611464 -0.272029 -0.049479 1.000000 0.000000 0.000000 87 29 13 1.000000
0.117358 -0.216624 0.261852 1.000000 0.000000 0.000000 177 105 43 1.000000
0.356395 0.087193 0.051425 0.000000 -1.000000 0.000000 177 107 44 1.000000
-0.850150 -0.335542 0.065524 1.000000 0.000000 0.000000 255 255 255 1.000000
0.117358 -0.185248 0.512630 1.000000 0.000000 0.000000 170 96 37 1.000000
-0.479804 0.126631 -0.436580 0.000000 0.000000 1.000000 90 31 11 1.000000
0.332705 0.087193 0.503776 0.000000 1.000000 0.000000 186 112 53 1.000000
0.376090 -0.272698 0.466166 0.000000 1.000000 0.000000 176 104 42 1.000000
-0.031964 0.203159 -0.484565 0.000000 0.000000 -1.000000 97 29 12 1.000000
0.483699 0.023012 0.321843 0.000000 -1.000000 0.000000 255 255 255 1.000000
0.117358 0.159496 0.374238 -1.000000 0.000000 0.000000 181 105 41 1.000000
0.053177 0.048539 0.315571 1.000000 0.000000 0.000000 255 255 255 1.000000
0.258112 0.017059 -0.484565 0.000000 0.000000 -1.000000 95 30 10 1.000000
0.375078 0.202958 -0.133827 0.000000 1.000000 0.000000 255 255 255 1.000000
0.113159 -0.189133 -0.085191 -1.000000 0.000000 0.000000 255 255 255 1.000000
-0.802164 0.166780 -0.314215 -1.000000 0.000000 0.000000 255 255 255 1.000000
0.427103 0.067373 -0.484565 0.000000 0.000000 1.000000 255 255 255 1.000000
0.117358 -0.204723 0.088898 -1.000000 0.000000 0.000000 184 114 51 1.000000
-0.595777 0.268938 -0.448323 0.000000 1.000000 0.000000 72 209 204 0.500000
0.302303 -0.336879 -0.336720 0.000000 -1.000000 0.000000 255 255 255 1.000000
0.518229 -0.156933 0.383332 0.000000 1.000000 0.000000 255 255 255 1.000000
-0.313480 0.232949 0.368635 0.000000 -1.000000 0.000000 96 28 11 1.000000
-0.018961 0.062964 -0.484565 0.000000 0.000000 -1.000000 89 28 13 1.000000
0.293080 -0.096952 -0.122942 0.000000 1.000000 0.000000 255 255 255 1.000000
0.053177 -0.213925 -0.256586 1.000000 0.000000 0.000000 255 255 255 1.000000
-0.335312 0.232949 -0.368912 0.000000 1.000000 0.000000 255 255 255 1.000000
0.273592 0.082994 -0.110786 0.000000 -1.000000 0.000000 255 255 255 1.000000
-0.850150 -0.235684 0.190379 -1.000000 0.000000 0.000000 88 27 12 1.000000
0.611464 -0.136467 -0.335904 1.000000 0.000000 0.000000 91 31 9 1.000000
-0.103351 -0.080290 -0.484565 0.000000 0.000000 1.000000 255 255 255 1.000000
-0.802164 0.093891 0.023453 -1.000000 0.000000 0.000000 255 255 255 1.000000
0.225362 -0.096952 0.021465 0.000000 -1.000000 0.000000 255 255 255 1.000000
0.487586 -0.336879 -0.141109 0.000000 1.000000 0.000000 255 255 255 1.000000
-0.501857 0.232949 0.406412 0.000000 1.000000 0.000000 255 255 255 1.000000
0.466366 0.202958 0.218415 0.000000 1.000000 0.000000 255 255 255 1.000000
0.132298 0.023012 -0.081377 0.000000 1.000000 0.000000 255 255 255 1.000000
0.493993 0.104497 0.568717 0.000000 0.000000 1.000000 149 75 36 1.000000
-0.014551 0.232949 0.326585 0.000000 -1.000000 0.000000 95 26 7 1.000000
-0.177837 0.232949 -0.256142 0.000000 1.000000 0.000000 255 255 255 1.000000
0.136248 0.202958 0.079911 0.000000 1.000000 0.000000 255 255 255 1.000000
0.476547 0.202958 0.068227 0.000000 1.000000 0.000000 255 255 255 1.000000
-0.480741 0.268938 -0.407423 0.000000 1.000000 0.000000 72 209 204 0.500000
-0.802164 0.194769 0.162104 -1.000000 0.000000 0.000000 255 255 255 1.000000
-0.202340 0.232949 0.202413 0.000000 1.000000 0.000000 255 255 255 1.000000
-0.174546 0.262940 0.025943 0.000000 -1.000000 0.000000 255 255 255 1.000000
-0.802164 0.204322 0.306076 -1.000000 0.000000 0.000000 255 255 255 1.000000
0.268054 -0.167929 -0.484565 0.000000 0.000000 1.000000 255 255 255 1.000000
0.409682 0.082994 -0.031530 0.000000 -1.000000 0.000000 255 255 255 1.000000
0.505323 0.268938 -0.060708 0.000000 1.000000 0.000000 72 209 204 0.500000
0.053177 -0.239304 -0.389628 -1.000000 0.000000 0.000000 99 26 8 1.000000
0.611464 0.197696 -0.354954 -1.000000 0.000000 0.000000 255 255 255 1.000000
0.117358 -0.257173 0.443805 -1.000000 0.000000 0.000000 178 108 45 1.000000
-0.802164 0.174017 -0.098033 1.000000 0.000000 0.000000 93 28 8 1.000000
0.053177 0.010213 0.066662 1.000000 0.000000 0.000000 255 255 255 1.000000
-0.802164 0.017462 0.324101 -1.000000 0.000000 0.000000 255 255 255 1.000000
-0.595587 -0.115196 -0.436580 0.000000 0.000000 -1.000000 255 255 255 1.000000
0.117358 -0.050526 0.326908 -1.000000 0.000000 0.000000 178 100 39 1.000000
0.231714 0.023012 0.236629 0.000000 -1.000000 0.000000 255 255 255 1.000000
0.212427 -0.092753 0.484654 0.000000 1.000000 0.000000 176 104 44 1.000000
0.053177 -0.033917 0.237401 -1.000000 0.000000 0.000000 100 31 11 1.000000
0.290296 -0.336879 -0.048292 0.000000 1.000000 0.000000 255 255 255 1.000000
0.547284 -0.011898 0.007094 -1.000000 0.000000 0.000000 181 109 46 1.000000
-0.155651 0.077257 -0.484565 0.000000 0.000000 -1.000000 90 30 10 1.000000
0.547284 -0.220169 0.229887 1.000000 0.000000 0.000000 184 114 51 1.000000
0.053177 -0.107989 -0.067845 -1.000000 0.000000 0.000000 82 27 10 1.000000
0.340843 -0.071198 -0.031102 0.000000 0.000000 -1.000000 255 255 255 1.000000
0.388502 0.268938 -0.405406 0.000000 -1.000000 0.000000 72 209 204 0.500000
0.611464 0.031883 0.344816 -1.000000 0.000000 0.000000 255 255 255 1.000000
0.611464 0.239029 0.336861 1.000000 0.000000 0.000000 78 29 11 1.000000
-0.602793 0.045475 -0.436580 0.000000 0.000000 -1.000000 255 255 255 1.000000
-0.850001 -0.336879 -0.133720 0.000000 1.000000 0.000000 255 255 255 1.000000
0.097599 0.268938 -0.319066 0.000000 -1.000000 0.000000 72 209 204 0.500000
-0.066686 0.268938 -0.249255 0.000000 1.000000 0.000000 72 209 204 0.500000
0.547284 0.170706 0.471302 -1.000000 0.000000 0.000000 177 105 43 1.000000
0.117358 0.111886 0.103784 -1.000000 0.000000 0.000000 185 113 51 1.000000
0.384018 0.202958 0.158658 0.000000 1.000000 0.000000 255 255 255 1.000000
0.502310 -0.156933 -0.170868 0.000000 1.000000 0.000000 255 255 255 1.000000
-0.437801 0.268938 0.195571 0.000000 1.000000 0.000000 72 209 204 0.500000
0.495663 -0.336879 0.099944 0.000000 1.000000 0.000000 255 255 255 1.000000
0.460155 0.169873 -0.181057 0.000000 0.000000 -1.000000 255 255 255 1.000000
0.445716 -0.092753 0.376576 0.000000 1.000000 0.000000 179 103 41 1.000000
0.611464 0.083310 0.131737 1.000000 0.000000 0.000000 87 28 12 1.000000
0.611464 -0.114720 0.257490 -1.000000 0.000000 0.000000 255 255 255 1.000000
0.309918 -0.092753 0.514937 0.000000 1.000000 0.000000 167 89 31 1.000000
0.551482 -0.081421 -0.117209 -1.000000 0.000000 0.000000 255 255 255 1.000000
-0.199277 0.262940 -0.379605 0.000000 -1.000000 0.000000 255 255 255 1.000000
-0.276968 0.176765 -0.484565 0.000000 0.000000 -1.000000 94 29 13 1.000000
0.295875 0.268938 0.023432 0.000000 -1.000000 0.000000 72 209 204 0.500000
0.611464 0.135803 -0.483490 -1.000000 0.000000 0.000000 255 255 255 1.000000
-0.412723 0.079979 -0.484565 0.000000 0.000000 -1.000000 86 24 11 1.000000
0.117358 -0.039325 0.469627 -1.000000 0.000000 0.000000 182 110 48 1.000000
0.547284 -0.242369 0.101077 1.000000 0.000000 0.000000 169 92 34 1.000000
0.404456 -0.092753 0.518172 0.000000 1.000000 0.000000 168 91 35 1.000000
-0.850150 -0.256423 -0.433752 1.000000 0.000000 0.000000 255 255 255 1.000000
0.110599 0.268938 -0.216625 0.000000 1.000000 0.000000 72 209 204 0.500000
-0.802164 -0.111249 -0.000369 -1.000000 0.000000 0.000000 255 255 255 1.000000
0.378939 -0.274784 -0.484565 0.000000 0.000000 1.000000 255 255 255 1.000000
-0.718096 0.268938 0.202910 0.000000 -1.000000 0.000000 72 209 204 0.500000
-0.291126 -0.326431 -0.436580 0.000000 0.000000 1.000000 90 29 12 1.000000
-0.085612 0.232949 0.190302 0.000000 -1.000000 0.000000 99 30 10 1.000000
0.250191 0.202958 -0.095836 0.000000 1.000000 0.000000 255 255 255 1.000000
-0.640424 0.268938 -0.280901 0.000000 1.000000 0.000000 72 209 204 0.500000
0.053177 0.147485 -0.224564 1.000000 0.000000 0.000000 255 255 255 1.000000
0.504442 0.087193 0.388970 0.000000 1.000000 0.000000 172 95 37 1.000000
0.270350 0.266862 0.418762 0.000000 0.000000 -1.000000 61 91 5 0.500000
0.411084 0.202958 0.346718 0.000000 1.000000 0.000000 255 255 255 1.000000
0.322521 -0.203460 -0.181057 0.000000 0.000000 1.000000 255 255 255 1.000000
-0.603831 -0.335314 -0.484565 0.000000 0.000000 -1.000000 89 30 14 1.000000
-0.802164 -0.128140 -0.407795 -1.000000 0.000000 0.000000 255 255 255 1.000000
0.506500 0.262940 -0.232296 0.000000 1.000000 0.000000 98 31 11 1.000000
0.611464 -0.120321 -0.427469 1.000000 0.000000 0.000000 103 29 8 1.000000
-0.184247 0.232949 0.333816 0.000000 -1.000000 0.000000 92 32 12 1.000000
0.461826 -0.125248 -0.484565 0.000000 0.000000 -1.000000 87 27 13 1.000000
-0.751417 0.232949 -0.236052 0.000000 1.000000 0.000000 255 255 255 1.000000
0.397320 -0.272698 0.199869 0.000000 1.000000 0.000000 182 110 47 1.000000
0.394433 -0.096952 -0.105506 0.000000 1.000000 0.000000 255 255 255 1.000000
0.168800 0.087193 0.314531 0.000000 1.000000 0.000000 183 106 40 1.000000
0.611464 0.031101 -0.449926 1.000000 0.000000 0.000000 93 28 10 1.000000
0.611464 -0.123795 0.075361 1.000000 0.000000 0.000000 92 29 10 1.000000
0.345327 0.268938 0.315547 0.000000 1.000000 0.000000 72 209 204 0.500000
-0.517471 0.268938 0.041011 0.000000 1.000000 0.000000 72 209 204 0.500000
0.520972 0.087193 0.252435 0.000000 1.000000 0.000000 170 96 35 1.000000
0.545574 -0.332730 0.418762 0.000000 0.000000 -1.000000 255 255 255 1.000000
0.546348 0.023012 -0.157828 0.000000 1.000000 0.000000 255 255 255 1.000000
0.284692 0.195072 0.568717 0.000000 0.000000 1.000000 169 87 36 1.000000
0.611464 0.095467 -0.189580 -1.000000 0.000000 0.000000 255 255 255 1.000000
0.111363 -0.249286 -0.484565 0.000000 0.000000 1.000000 255 255 255 1.000000
-0.657854 0.232949 -0.391498 0.000000 -1.000000 0.000000 87 28 10 1.000000
0.435144 0.158150 -0.484565 0.000000 0.000000 -1.000000 87 29 13 1.000000
0.228381 0.202958 0.016656 0.000000 -1.000000 0.000000 255 255 255 1.000000
0.310604 0.021763 0.568717 0.000000 0.000000 1.000000 160 80 33 1.000000
0.461179 -0.156933 -0.089362 0.000000 -1.000000 0.000000 255 255 255 1.000000
0.125211 0.023012 0.011524 0.000000 -1.000000 0.000000 255 255 255 1.000000
-0.675669 0.268938 0.039772 0.000000 -1.000000 0.000000 72 209 204 0.500000
0.460081 -0.276897 -0.066418 0.000000 1.000000 0.000000 255 255 255 1.000000
0.552470 -0.336879 0.280452 0.000000 1.000000 0.000000 255 255 255 1.000000
0.153705 0.098845 0.568717 0.000000 0.000000 1.000000 148 72 24 1.000000
-0.758107 0.268938 -0.410086 0.000000 -1.000000 0.000000 72 209 204 0.500000
0.330115 0.023012 0.327616 0.000000 -1.000000 0.000000 255 255 255 1.000000
0.574598 -0.246050 -0.484565 0.000000 0.000000 1.000000 255 255 255 1.000000
0.290487 -0.336879 0.315006 0.000000 1.000000 0.000000 255 255 255 1.000000
-0.333783 -0.232617 -0.436580 0.000000 0.000000 -1.000000 255 255 255 1.000000
0.151331 0.202958 0.254782 0.000000 -1.000000 0.000000 255 255 255 1.000000
0.117358 -0.017860 0.176336 1.000000 0.000000 0.000000 189 118 58 1.000000
-0.846681 0.268938 -0.000232 0.000000 -1.000000 0.000000 72 209 204 0.500000
0.251019 0.140457 -0.484565 0.000000 0.000000 1.000000 255 255 255 1.000000
-0.802164 -0.169897 0.152759 -1.000000 0.000000 0.000000 255 255 255 1.000000
0.222543 -0.092753 0.367729 0.000000 -1.000000 0.000000 181 111 47 1.000000
0.481009 0.082994 0.121092 0.000000 1.000000 0.000000 255 255 255 1.000000
0.611464 0.061193 -0.008815 1.000000 0.000000 0.000000 84 30 14 1.000000
0.611464 0.237229 -0.013376 1.000000 0.000000 0.000000 82 27 11 1.000000
0.220009 -0.272698 0.558078 0.000000 1.000000 0.000000 180 108 45 1.000000
-0.829785 -0.088848 -0.484565 0.000000 0.000000 1.000000 255 255 255 1.000000
0.419357 -0.336879 0.417993 0.000000 1.000000 0.000000 255 255 255 1.000000
-0.850150 0.064966 -0.219579 1.000000 0.000000 0.000000 255 255 255 1.000000
0.053177 -0.284284 0.008055 1.000000 0.000000 0.000000 255 255 255 1.000000
0.494733 -0.156933 0.007017 0.000000 1.000000 0.000000 255 255 255 1.000000
0.442532 0.023012 0.417390 0.000000 1.000000 0.000000 255 255 255 1.000000
0.373904 0.202958 -0.021891 0.000000 -1.000000 0.000000 255 255 255 1.000000
-0.553982 -0.036665 -0.436580 0.000000 0.000000 1.000000 99 30 10 1.000000
0.547284 0.182274 0.014036 -1.000000 0.000000 0.000000 170 98 35 1.000000
0.534085 0.268938 0.203793 0.000000 -1.000000 0.000000 72 209 204 0.500000
-0.536940 -0.209734 -0.436580 0.000000 0.000000 1.000000 91 29 6 1.000000
0.053177 0.212048 -0.162279 1.000000 0.000000 0.000000 255 255 255 1.000000
-0.080702 0.232949 -0.404911 0.000000 -1.000000 0.000000 95 27 10 1.000000
0.082387 0.262940 0.118659 0.000000 1.000000 0.000000 87 28 10 1.000000
-0.383542 -0.075843 -0.484565 0.000000 0.000000 -1.000000 96 30 4 1.000000
0.144006 -0.276897 0.045282 0.000000 -1.000000 0.000000 255 255 255 1.000000
0.328492 0.023012 0.144657 0.000000 -1.000000 0.000000 255 255 255 1.000000
0.611464 0.155649 0.246618 -1.000000 0.000000 0.000000 255 255 255 1.000000
0.173807 -0.153892 -0.484565 0.000000 0.000000 -1.000000 84 26 11 1.000000
0.411546 0.087193 0.259489 0.000000 1.000000 0.000000 165 91 32 1.000000
-0.255125 -0.139331 -0.436580 0.000000 0.000000 1.000000 91 28 7 1.000000
0.137549 -0.092753 0.134017 0.000000 -1.000000 0.000000 183 115 54 1.000000
-0.072256 0.008879 -0.436580 0.000000 0.000000 -1.000000 255 255 255 1.000000
0.349881 -0.156933 0.030227 0.000000 -1.000000 0.000000 255 255 255 1.000000
-0.747671 0.030406 -0.484565 0.000000 0.000000 -1.000000 96 28 13 1.000000
-0.342556 0.232949 0.279402 0.000000 1.000000 0.000000 255 255 255 1.000000
-0.244970 0.011412 -0.436580 0.000000 0.000000 1.000000 92 32 12 1.000000
0.070050 0.116130 -0.484565 0.000000 0.000000 -1.000000 85 27 11 1.000000
0.203993 0.202958 0.335638 0.000000 -1.000000 0.000000 255 255 255 1.000000
0.053177 -0.128820 0.200202 1.000000 0.000000 0.000000 255 255 255 1.000000
0.218213 0.087193 0.084044 0.000000 1.000000 0.000000 170 96 35 1.000000
0.375376 0.023012 -0.123393 0.000000 -1.000000 0.000000 255 255 255 1.000000
-0.850150 -0.150812 -0.217385 -1.000000 0.000000 0.000000 94 29 13 1.000000
0.461434 0.189252 0.568717 0.000000 0.000000 -1.000000 255 255 255 1.000000
-0.802164 0.019581 -0.081527 1.000000 0.000000 0.000000 92 27 11 1.000000
0.303539 -0.336879 0.221811 0.000000 1.000000 0.000000 255 255 255 1.000000
0.163103 0.202958 -0.097021 0.000000 -1.000000 0.000000 255 255 255 1.000000
-0.850150 0.185245 0.235983 1.000000 0.000000 0.000000 255 255 255 1.000000
-0.453004 -0.336879 -0.476953 0.000000 1.000000 0.000000 255 255 255 1.000000
0.611464 0.192123 0.415523 -1.000000 0.000000 0.000000 255 255 255 1.000000
0.373713 -0.336879 -0.286688 0.000000 -1.000000 0.000000 255 255 255 1.000000
0.272448 -0.246478 -0.031102 0.000000 0.000000 -1.000000 255 255 255 1.000000
0.286105 0.202958 0.232472 0.000000 1.000000 0.000000 255 255 255 1.000000
-0.588186 0.232949 0.092811 0.000000 -1.000000 0.000000 99 31 14 1.000000
0.528376 -0.156933 0.128258 0.000000 1.000000 0.000000 255 255 255 1.000000
-0.205748 -0.263713 -0.436580 0.000000 0.000000 -1.000000 255 255 255 1.000000
0.403892 -0.336879 0.020143 0.000000 1.000000 0.000000 255 255 255 1.000000
-0.356630 0.232949 -0.146462 0.000000 1.000000 0.000000 255 255 255 1.000000
-0.850150 -0.251725 0.028788 -1.000000 0.000000 0.000000 89 29 9 1.000000
-0.615888 0.268938 0.245298 0.000000 1.000000 0.000000 72 209 204 0.500000
0.323947 0.087427 -0.181057 0.000000 0.000000 -1.000000 255 255 255 1.000000
-0.758364 0.268938 0.346983 0.000000 -1.000000 0.000000 72 209 204 0.500000
0.535213 0.082994 -0.095961 0.000000 -1.000000 0.000000 255 255 255 1.000000
-0.802164 0.052323 0.150068 1.000000 0.000000 0.000000 88 27 12 1.000000
0.053177 -0.231173 -0.137890 1.000000 0.000000 0.000000 255 255 255 1.000000
0.405600 0.268938 0.212878 0.000000 1.000000 0.000000 72 209 204 0.500000
0.178752 0.082994 0.165322 0.000000 1.000000 0.000000 255 255 255 1.000000
0.449346 -0.156933 0.199170 0.000000 -1.000000 0.000000 255 255 255 1.000000
0.401829 -0.092753 0.053651 0.000000 -1.000000 0.000000 184 116 55 1.000000
0.053177 0.061295 -0.066172 -1.000000 0.000000 0.000000 100 31 11 1.000000
0.219867 -0.156933 -0.100214 0.000000 -1.000000 0.000000 255 255 255 1.000000
0.114463 -0.336879 -0.295238 0.000000 -1.000000 0.000000 255 255 255 1.000000
-0.017627 0.232949 0.009264 0.000000 1.000000 0.000000 255 255 255 1.000000
-0.757689 -0.328877 -0.484565 0.000000 0.000000 -1.000000 100 31 12 1.000000
0.546580 -0.272698 0.018349 0.000000 1.000000 0.000000 174 102 39 1.000000
0.137180 -0.005697 -0.181057 0.000000 0.000000 1.000000 255 255 255 1.000000
0.551482 0.199764 0.115323 -1.000000 0.000000 0.000000 255 255 255 1.000000
0.117358 -0.218662 0.347031 -1.000000 0.000000 0.000000 180 103 37 1.000000
-0.850150 0.196393 -0.167968 -1.000000 0.000000 0.000000 93 29 13 1.000000
0.147176 0.268938 0.015989 0.000000 -1.000000 0.000000 72 209 204 0.500000
0.257376 0.023012 0.371826 0.000000 1.000000 0.000000 255 255 255 1.000000
0.212660 -0.276897 -0.179605 0.000000 -1.000000 0.000000 255 255 255 1.000000
-0.372003 0.232949 -0.005706 0.000000 -1.000000 0.000000 86 27 9 1.000000
0.134046 0.268938 -0.479804 0.000000 -1.000000 0.000000 72 209 204 0.500000
0.053177 -0.260520 0.096974 1.000000 0.000000 0.000000 255 255 255 1.000000
-0.430040 -0.152936 -0.484565 0.000000 0.000000 -1.000000 80 25 8 1.000000
-0.010622 0.268938 -0.185549 0.000000 1.000000 0.000000 72 209 204 0.500000
0.053177 -0.149280 0.114971 -1.000000 0.000000 0.000000 86 29 10 1.000000
0.494791 0.086181 -0.181057 0.000000 0.000000 -1.000000 255 255 255 1.000000
-0.334207 0.087906 -0.436580 0.000000 0.000000 -1.000000 255 255 255 1.000000
0.541712 -0.156933 0.288970 0.000000 -1.000000 0.000000 255 255 255 1.000000
0.157744 -0.272698 0.211744 0.000000 -1.000000 0.000000 177 105 42 1.000000
-0.850150 -0.185450 -0.123860 -1.000000 0.000000 0.000000 91 31 11 1.000000
0.393087 -0.096952 0.296400 0.000000 1.000000 0.000000 255 255 255 1.000000
0.206200 -0.336879 -0.423063 0.000000 -1.000000 0.000000 255 255 255 1.000000
0.547284 0.090936 0.504542 -1.000000 0.000000 0.000000 187 115 55 1.000000
0.418317 0.262940 -0.078985 0.000000 -1.000000 0.000000 255 255 255 1.000000
-0.802164 0.188600 0.064226 -1.000000 0.000000 0.000000 255 255 255 1.000000
0.267726 0.202958 0.112758 0.000000 -1.000000 0.000000 255 255 255 1.000000
0.238302 -0.336879 0.139717 0.000000 -1.000000 0.000000 255 255 255 1.000000
0.547284 -0.038273 0.489127 1.000000 0.000000 0.000000 179 105 46 1.000000
0.239567 -0.092753 0.178324 0.000000 -1.000000 0.000000 176 104 42 1.000000
-0.802164 -0.136225 0.341478 1.000000 0.000000 0.000000 91 31 9 1.000000
-0.750177 -0.127848 -0.484565 0.000000 0.000000 1.000000 255 255 255 1.000000
0.143167 -0.156933 -0.013350 0.000000 -1.000000 0.000000 255 255 255 1.000000
0.528979 -0.084633 -0.031102 0.000000 0.000000 -1.000000 255 255 255 1.000000
-0.850150 0.048725 0.261718 1.000000 0.000000 0.000000 255 255 255 1.000000
-0.802164 -0.065588 0.136183 1.000000 0.000000 0.000000 95 27 10 1.000000
-0.193532 0.268938 -0.158569 0.000000 1.000000 0.000000 72 209 204 0.500000
0.363311 0.013368 -0.484565 0.000000 0.000000 -1.000000 98 31 10 1.000000
0.415559 0.087193 0.542347 0.000000 -1.000000 0.000000 181 106 52 1.000000
0.549518 -0.276897 -0.107419 0.000000 -1.000000 0.000000 255 255 255 1.000000
-0.000231 0.142670 -0.436580 0.000000 0.000000 1.000000 95 30 14 1.000000
0.053177 -0.112552 -0.414818 1.000000 0.000000 0.000000 255 255 255 1.000000
0.053177 0.187877 0.055606 1.000000 0.000000 0.000000 255 255 255 1.000000
0.135742 -0.276897 -0.091315 0.000000 -1.000000 0.000000 255 255 255 1.000000
0.044559 0.232949 -0.046020 0.000000 1.000000 0.000000 255 255 255 1.000000
0.397218 0.268938 0.089917 0.000000 1.000000 0.000000 72 209 204 0.500000
0.391585 0.087193 0.436441 0.000000 1.000000 0.000000 171 97 38 1.000000
0.110373 -0.336879 -0.170006 0.000000 -1.000000 0.000000 255 255 255 1.000000
-0.035752 0.232949 -0.322010 0.000000 1.000000 0.000000 255 255 255 1.000000
-0.638450 0.262940 0.345486 0.000000 -1.000000 0.000000 255 255 255 1.000000
0.547284 0.004708 0.237172 1.000000 0.000000 0.000000 172 102 39 1.000000
-0.548951 0.108714 -0.484565 0.000000 0.000000 1.000000 255 255 255 1.000000
0.409849 -0.156933 0.415759 0.000000 -1.000000 0.000000 255 255 255 1.000000
-0.833151 0.181561 -0.484565 0.000000 0.000000 1.000000 255 255 255 1.000000
-0.043823 -0.263588 -0.436580 0.000000 0.000000 1.000000 88 27 12 1.000000
0.523862 -0.336879 -0.453848 0.000000 1.000000 0.000000 255 255 255 1.000000
0.346242 0.262940 -0.287882 0.000000 1.000000 0.000000 87 30 11 1.000000
-0.097869 0.262940 0.056006 0.000000 -1.000000 0.000000 255 255 255 1.000000
-0.850150 -0.269763 0.358634 1.000000 0.000000 0.000000 255 255 255 1.000000
0.413599 -0.010409 -0.031102 0.000000 0.000000 -1.000000 255 255 255 1.000000
-0.802164 -0.186185 0.040177 -1.000000 0.000000 0.000000 255 255 255 1.000000
0.219386 -0.156933 0.227272 0.000000 1.000000 0.000000 255 255 255 1.000000
-0.850150 -0.254736 -0.078126 1.000000 0.000000 0.000000 255 255 255 1.000000
0.347844 -0.336879 -0.146242 0.000000 -1.000000 0.000000 255 255 255 1.000000
0.210027 0.023012 -0.120403 0.000000 1.000000 0.000000 255 255 255 1.000000
-0.850150 -0.236153 -0.317146 -1.000000 0.000000 0.000000 81 30 12 1.000000
0.551415 0.202958 -0.075212 0.000000 -1.000000 0.000000 255 255 255 1.000000
0.418125 0.262940 -0.226453 0.000000 -1.000000 0.000000 255 255 255 1.000000
0.252266 -0.336879 0.414198 0.000000 -1.000000 0.000000 255 255 255 1.000000
0.611464 -0.289561 0.118800 1.000000 0.000000 0.000000 91 27 11 1.000000
-0.311997 0.015115 -0.484565 0.000000 0.000000 -1.000000 78 29 11 1.000000
0.268898 -0.156933 0.063123 0.000000 -1.000000 0.000000 255 255 255 1.000000
0.379280 -0.336879 0.297418 0.000000 1.000000 0.000000 255 255 255 1.000000
0.611464 -0.025973 -0.139826 1.000000 0.000000 0.000000 100 33 10 1.000000
-0.122201 0.187190 -0.484565 0.000000 0.000000 1.000000 255 255 255 1.000000
0.266111 -0.156933 0.328528 0.000000 -1.000000 0.000000 255 255 255 1.000000
0.196539 0.021455 0.568717 0.000000 0.000000 -1.000000 255 255 255 1.000000
-0.197144 0.268938 -0.483863 0.000000 1.000000 0.000000 72 209 204 0.500000
-0.184347 -0.084955 -0.484565 0.000000 0.000000 1.000000 255 255 255 1.000000
-0.802164 -0.206162 -0.385843 -1.000000 0.000000 0.000000 255 255 255 1.000000
0.053177 -0.088496 0.014324 -1.000000 0.000000 0.000000 94 31 12 1.000000
0.053177 0.092993 0.239421 1.000000 0.000000 0.000000 255 255 255 1.000000
-0.445093 0.232949 0.044751 0.000000 1.000000 0.000000 255 255 255 1.000000
0.053177 0.197841 0.225417 -1.000000 0.000000 0.000000 97 30 9 1.000000
0.309883 -0.092753 0.367616 0.000000 1.000000 0.000000 172 106 44 1.000000
0.490638 -0.092753 0.264932 0.000000 1.000000 0.000000 176 100 39 1.000000
0.345100 -0.156933 0.251532 0.000000 -1.000000 0.000000 255 255 255 1.000000
0.316737 -0.336879 0.094708 0.000000 1.000000 0.000000 255 255 255 1.000000
0.053177 0.184570 0.415880 1.000000 0.000000 0.000000 255 255 255 1.000000
0.024324 0.268938 -0.475502 0.000000 -1.000000 0.000000 72 209 204 0.500000
0.611464 0.210770 -0.154550 -1.000000 0.000000 0.000000 255 255 255 1.000000
0.126740 -0.336879 0.145987 0.000000 -1.000000 0.000000 255 255 255 1.000000
0.611464 -0.148134 -0.015667 -1.000000 0.000000 0.000000 255 255 255 1.000000
-0.850150 0.055355 -0.028088 1.000000 0.000000 0.000000 255 255 255 1.000000
-0.523281 0.232949 -0.166590 0.000000 -1.000000 0.000000 95 28 8 1.000000
-0.002727 -0.336879 -0.441717 0.000000 -1.000000 0.000000 255 255 255 1.000000
0.165422 0.087193 0.438592 0.000000 1.000000 0.000000 187 110 54 1.000000
-0.426620 0.268938 -0.109206 0.000000 -1.000000 0.000000 255 255 255 1.000000
0.452462 0.023012 -0.150150 0.000000 1.000000 0.000000 255 255 255 1.000000
0.547397 0.268938 -0.161245 0.000000 -1.000000 0.000000 72 209 204 0.500000
-0.850150 0.089498 -0.300862 1.000000 0.000000 0.000000 255 255 255 1.000000
0.518285 -0.336879 -0.304830 0.000000 1.000000 0.000000 255 255 255 1.000000
0.611464 0.108354 0.320789 -1.000000 0.000000 0.000000 255 255 255 1.000000
0.611464 -0.278084 -0.200817 1.000000 0.000000 0.000000 85 25 11 1.000000
0.053177 -0.284514 -0.308606 -1.000000 0.000000 0.000000 86 27 11 1.000000
0.114684 0.268938 0.406873 0.000000 -1.000000 0.000000 72 209 204 0.500000
0.473249 -0.026361 0.568717 0.000000 0.000000 1.000000 139 65 26 1.000000
0.611464 -0.057443 0.355579 1.000000 0.000000 0.000000 100 33 12 1.000000
0.547284 -0.261646 0.489824 1.000000 0.000000 0.000000 187 115 55 1.000000
-0.501679 0.232949 -0.330551 0.000000 1.000000 0.000000 255 255 255 1.000000
-0.410223 0.232949 -0.400135 0.000000 1.000000 0.000000 255 255 255 1.000000
0.551482 -0.015145 -0.073520 1.000000 0.000000 0.000000 255 255 255 1.000000
-0.452377 0.030172 -0.436580 0.000000 0.000000 1.000000 96 29 9 1.000000
0.611464 -0.283825 0.281255 1.000000 0.000000 0.000000 88 29 11 1.000000
0.053177 0.146623 -0.050315 1.000000 0.000000 0.000000 255 255 255 1.000000
-0.120128 0.268938 -0.102215 0.000000 1.000000 0.000000 72 209 204 0.500000
0.153800 -0.170747 -0.181057 0.000000 0.000000 1.000000 255 255 255 1.000000
-0.672489 -0.242062 -0.436580 0.000000 0.000000 -1.000000 255 255 255 1.000000
0.536959 -0.336879 0.177468 0.000000 1.000000 0.000000 255 255 255 1.000000
-0.095279 -0.159193 -0.484565 0.000000 0.000000 1.000000 255 255 255 1.000000
0.391222 -0.272698 0.085916 0.000000 -1.000000 0.000000 162 88 31 1.000000
0.343245 -0.156933 -0.098795 0.000000 1.000000 0.000000 255 255 255 1.000000
0.443418 -0.336879 0.201391 0.000000 -1.000000 0.000000 255 255 255 1.000000
0.551482 -0.053021 0.134797 1.000000 0.000000 0.000000 255 255 255 1.000000
0.117358 -0.170894 0.161965 1.000000 0.000000 0.000000 180 106 47 1.000000
0.280755 0.268938 -0.126239 0.000000 1.000000 0.000000 72 209 204 0.500000
0.611464 -0.038799 -0.288889 1.000000 0.000000 0.000000 84 29 13 1.000000
0.076466 0.268938 -0.412880 0.000000 1.000000 0.000000 72 209 204 0.500000
-0.277700 0.262940 0.204787 0.000000 -1.000000 0.000000 255 255 255 1.000000
-0.427800 0.268938 -0.248861 0.000000 -1.000000 0.000000 72 209 204 0.500000
0.133476 -0.336879 -0.383073 0.000000 -1.000000 0.000000 255 255 255 1.000000
0.113159 -0.062375 -0.113038 -1.000000 0.000000 0.000000 255 255 255 1.000000
0.507734 -0.225599 -0.031102 0.000000 0.000000 1.000000 179 102 38 1.000000
-0.521756 0.232949 -0.032342 0.000000 -1.000000 0.000000 96 32 10 1.000000
0.492460 0.023490 -0.484565 0.000000 0.000000 1.000000 255 255 255 1.000000
0.459874 0.202958 -0.107450 0.000000 -1.000000 0.000000 255 255 255 1.000000
-0.788154 0.250391 0.418762 0.000000 0.000000 1.000000 89 25 11 1.000000
0.306762 -0.244417 -0.484565 0.000000 0.000000 1.000000 255 255 255 1.000000
0.264726 0.087193 0.016589 0.000000 1.000000 0.000000 161 87 26 1.000000
0.258440 -0.272698 0.239356 0.000000 1.000000 0.000000 169 97 37 1.000000
0.300015 0.087193 0.384131 0.000000 1.000000 0.000000 170 94 33 1.000000
0.053177 -0.190326 0.313043 -1.000000 0.000000 0.000000 83 28 12 1.000000
0.547284 0.157069 0.388573 -1.000000 0.000000 0.000000 176 104 41 1.000000
0.452163 0.268938 0.381547 0.000000 -1.000000 0.000000 72 209 204 0.500000
0.349677 -0.156933 0.132533 0.000000 1.000000 0.000000 255 255 255 1.000000
0.611464 -0.131773 -0.099431 -1.000000 0.000000 0.000000 255 255 255 1.000000
0.332455 -0.272698 0.349953 0.000000 1.000000 0.000000 184 107 43 1.000000
0.611464 0.199839 0.174917 1.000000 0.000000 0.000000 79 30 12 1.000000
-0.850150 -0.059876 0.032851 -1.000000 0.000000 0.000000 92 29 8 1.000000
0.214408 -0.336879 -0.031908 0.000000 1.000000 0.000000 255 255 255 1.000000
0.229612 0.262940 -0.411428 0.000000 -1.000000 0.000000 255 255 255 1.000000
0.053177 -0.004978 -0.299898 -1.000000 0.000000 0.000000 81 26 10 1.000000
0.231693 0.023012 0.126243 0.000000 1.000000 0.000000 255 255 255 1.000000
0.425195 -0.336879 -0.484183 0.000000 1.000000 0.000000 255 255 255 1.000000
-0.802164 -0.004066 -0.397410 1.000000 0.000000 0.000000 100 30 10 1.000000
0.236535 -0.336879 -0.266461 0.000000 -1.000000 0.000000 255 255 255 1.000000
-0.784243 0.262940 0.047191 0.000000 1.000000 0.000000 85 25 11 1.000000
0.126986 -0.042956 -0.031102 0.000000 0.000000 1.000000 170 93 29 1.000000
0.338564 0.203992 0.418762 0.000000 0.000000 1.000000 93 30 11 1.000000
0.141288 0.202958 0.164760 0.000000 1.000000 0.000000 255 255 255 1.000000
0.257762 0.268938 -0.219150 0.000000 1.000000 0.000000 72 209 204 0.500000
-0.323079 -0.055544 -0.436580 0.000000 0.000000 1.000000 83 25 9 1.000000
-0.438056 0.199544 -0.484565 0.000000 0.000000 1.000000 255 255 255 1.000000
0.541729 0.202958 0.242877 0.000000 -1.000000 0.000000 255 255 255 1.000000
0.008991 -0.123391 -0.484565 0.000000 0.000000 -1.000000 89 32 13 1.000000
-0.850150 -0.336032 -0.321532 -1.000000 0.000000 0.000000 84 26 10 1.000000
-0.330385 0.231906 -0.484565 0.000000 0.000000 1.000000 255 255 255 1.000000
0.436450 0.082994 -0.105260 0.000000 1.000000 0.000000 255 255 255 1.000000
0.497876 -0.272698 0.262004 0.000000 -1.000000 0.000000 172 94 33 1.000000
0.516451 0.023012 0.071291 0.000000 -1.000000 0.000000 255 255 255 1.000000
-0.692198 0.144656 -0.484565 0.000000 0.000000 -1.000000 94 32 9 1.000000
0.387638 -0.102316 -0.484565 0.000000 0.000000 -1.000000 98 28 8 1.000000
0.244359 -0.096952 -0.059753 0.000000 1.000000 0.000000 255 255 255 1.000000
0.298852 0.013742 -0.181057 0.000000 0.000000 -1.000000 255 255 255 1.000000
-0.488524 0.268938 0.340177 0.000000 -1.000000 0.000000 72 209 204 0.500000
-0.850150 -0.327533 -0.406138 1.000000 0.000000 0.000000 255 255 255 1.000000
-0.796134 0.268938 0.145634 0.000000 -1.000000 0.000000 72 209 204 0.500000
0.300167 0.087193 0.238801 0.000000 -1.000000 0.000000 163 91 29 1.000000
0.455121 -0.201099 -0.484565 0.000000 0.000000 1.000000 255 255 255 1.000000
-0.850150 -0.237755 0.289593 1.000000 0.000000 0.000000 255 255 255 1.000000
0.053177 0.119953 0.363928 -1.000000 0.000000 0.000000 87 28 10 1.000000
0.551482 0.124106 0.107782 1.000000 0.000000 0.000000 255 255 255 1.000000
0.172583 -0.272698 0.498934 0.000000 1.000000 0.000000 179 107 47 1.000000
0.267153 -0.272698 0.081693 0.000000 -1.000000 0.000000 180 107 44 1.000000
-0.045419 -0.088856 -0.436580 0.000000 0.000000 -1.000000 255 255 255 1.000000
0.455912 0.087193 0.028265 0.000000 -1.000000 0.000000 182 104 44 1.000000
-0.850150 -0.272841 -0.201235 -1.000000 0.000000 0.000000 94 31 10 1.000000
-0.556226 0.166770 -0.436580 0.000000 0.000000 1.000000 98 28 6 1.000000
0.432283 -0.092753 0.149360 0.000000 -1.000000 0.000000 174 101 44 1.000000
0.053177 -0.125176 0.367175 1.000000 0.000000 0.000000 255 255 255 1.000000
-0.802164 0.115509 -0.406399 -1.000000 0.000000 0.000000 255 255 255 1.000000
0.152674 0.087193 0.041709 0.000000 1.000000 0.000000 174 102 40 1.000000
0.611464 -0.012874 0.272843 1.000000 0.000000 0.000000 103 30 9 1.000000
-0.263960 0.232949 -0.057398 0.000000 -1.000000 0.000000 102 32 10 1.000000
0.500425 0.202958 0.348033 0.000000 -1.000000 0.000000 255 255 255 1.000000
0.257594 0.268938 0.343408 0.000000 -1.000000 0.000000 72 209 204 0.500000
-0.802164 0.073226 -0.160357 -1.000000 0.000000 0.000000 255 255 255 1.000000
0.032895 0.003640 -0.436580 0.000000 0.000000 1.000000 89 30 14 1.000000
0.062458 -0.336879 0.286941 0.000000 1.000000 0.000000 255 255 255 1.000000
0.053177 -0.226327 -0.054118 -1.000000 0.000000 0.000000 92 28 12 1.000000
-0.384333 0.232949 0.343379 0.000000 -1.000000 0.000000 84 28 17 1.000000
-0.494486 -0.263141 -0.484565 0.000000 0.000000 -1.000000 91 32 12 1.000000
-0.850105 0.268938 0.292010 0.000000 1.000000 0.000000 72 209 204 0.500000
0.611464 -0.135316 -0.239248 1.000000 0.000000 0.000000 92 28 12 1.000000
0.239551 -0.092753 0.098275 0.000000 -1.000000 0.000000 176 102 41 1.000000
-0.850150 0.207315 -0.269902 1.000000 0.000000 0.000000 255 255 255 1.000000
0.260240 -0.336879 -0.163019 0.000000 -1.000000 0.000000 255 255 255 1.000000
0.218672 0.087193 0.371255 0.000000 -1.000000 0.000000 172 100 37 1.000000
0.611464 0.189378 -0.429398 1.000000 0.000000 0.000000 93 28 10 1.000000
0.175221 0.268938 0.147809 0.000000 1.000000 0.000000 72 209 204 0.500000
0.169206 -0.272698 0.374228 0.000000 1.000000 0.000000 156 84 22 1.000000
-0.850150 -0.034874 -0.283146 -1.000000 0.000000 0.000000 93 29 15 1.000000
0.488097 -0.336879 0.371056 0.000000 -1.000000 0.000000 255 255 255 1.000000
0.417538 -0.083585 -0.181057 0.000000 0.000000 1.000000 255 255 255 1.000000
0.402997 0.023012 0.296871 0.000000 -1.000000 0.000000 255 255 255 1.000000
0.345588 -0.276897 -0.052850 0.000000 -1.000000 0.000000 255 255 255 1.000000
-0.850150 -0.021549 0.366535 -1.000000 0.000000 0.000000 94 27 7 1.000000
-0.682177 0.262940 -0.219348 0.000000 1.000000 0.000000 97 28 8 1.000000
-0.242241 0.268938 -0.229094 0.000000 -1.000000 0.000000 72 209 204 0.500000
0.301487 0.087193 0.101893 0.000000 -1.000000 0.000000 167 89 31 1.000000
-0.802164 0.116409 -0.050727 1.000000 0.000000 0.000000 97 28 11 1.000000
-0.691504 0.007623 -0.436580 0.000000 0.000000 1.000000 82 28 12 1.000000
0.242609 0.082994 -0.180405 0.000000 1.000000 0.000000 255 255 255 1.000000
0.198892 0.023012 0.034764 0.000000 -1.000000 0.000000 255 255 255 1.000000
0.611464 -0.298655 -0.403271 -1.000000 0.000000 0.000000 255 255 255 1.000000
0.417531 -0.272698 0.278722 0.000000 1.000000 0.000000 166 90 29 1.000000
0.117358 -0.226239 -0.005487 -1.000000 0.000000 0.000000 178 101 37 1.000000
0.395166 -0.336879 -0.211845 0.000000 1.000000 0.000000 255 255 255 1.000000
-0.811447 0.268938 -0.160435 0.000000 -1.000000 0.000000 72 209 204 0.500000
0.027179 -0.200384 -0.484565 0.000000 0.000000 1.000000 255 255 255 1.000000
0.611464 0.115268 -0.113900 1.000000 0.000000 0.000000 94 29 11 1.000000
0.113159 -0.036854 0.088943 -1.000000 0.000000 0.000000 255 255 255 1.000000
-0.802164 -0.139515 -0.075209 -1.000000 0.000000 0.000000 255 255 255 1.000000
-0.545465 0.232949 -0.404758 0.000000 1.000000 0.000000 255 255 255 1.000000
0.611464 0.031919 0.186747 1.000000 0.000000 0.000000 97 33 11 1.000000
0.346160 0.082994 -0.091332 0.000000 1.000000 0.000000 255 255 255 1.000000
0.113159 0.109113 -0.071982 1.000000 0.000000 0.000000 255 255 255 1.000000
-0.802164 -0.102380 0.255910 1.000000 0.000000 0.000000 100 30 6 1.000000
0.166085 -0.336879 0.083395 0.000000 -1.000000 0.000000 255 255 255 1.000000
-0.802164 -0.331087 0.121586 -1.000000 0.000000 0.000000 255 255 255 1.000000
-0.498787 0.232949 0.268254 0.000000 -1.000000 0.000000 93 28 8 1.000000
0.504315 -0.336879 0.026228 0.000000 -1.000000 0.000000 255 255 255 1.000000
-0.651578 -0.110219 -0.484565 0.000000 0.000000 1.000000 255 255 255 1.000000
-0.802164 -0.287800 -0.276144 -1.000000 0.000000 0.000000 255 255 255 1.000000
0.611464 -0.133598 0.328821 1.000000 0.000000 0.000000 89 29 9 1.000000
0.425011 0.023012 0.153676 0.000000 1.000000 0.000000 255 255 255 1.000000
0.048769 0.262940 0.293464 0.000000 -1.000000 0.000000 255 255 255 1.000000
0.310283 -0.092753 0.157726 0.000000 1.000000 0.000000 163 85 27 1.000000
-0.802164 -0.282271 0.221563 -1.000000 0.000000 0.000000 255 255 255 1.000000
0.053177 -0.289694 0.164587 1.000000 0.000000 0.000000 255 255 255 1.000000
0.448229 -0.223490 -0.181057 0.000000 0.000000 1.000000 255 255 255 1.000000
0.508442 -0.096952 0.338416 0.000000 1.000000 0.000000 255 255 255 1.000000
-0.350636 0.268938 -0.303442 0.000000 -1.000000 0.000000 72 209 204 0.500000
0.547284 -0.180716 0.061001 1.000000 0.000000 0.000000 179 111 48 1.000000
-0.183879 -0.200629 -0.484565 0.000000 0.000000 -1.000000 87 28 12 1.000000
0.218294 -0.156933 -0.026189 0.000000 -1.000000 0.000000 255 255 255 1.000000
-0.802164 -0.148623 0.418658 1.000000 0.000000 0.000000 90 30 10 1.000000
0.611464 -0.266500 -0.331110 1.000000 0.000000 0.000000 91 31 11 1.000000
-0.802164 -0.239389 0.411064 1.000000 0.000000 0.000000 85 30 14 1.000000
0.496010 -0.218826 0.568717 0.000000 0.000000 1.000000 151 80 36 1.000000
0.225341 -0.276897 -0.089754 0.000000 -1.000000 0.000000 255 255 255 1.000000
-0.060947 0.232949 0.259285 0.000000 1.000000 0.000000 255 255 255 1.000000
-0.078293 0.268938 0.329203 0.000000 -1.000000 0.000000 72 209 204 0.500000
0.207680 0.087193 0.506299 0.000000 1.000000 0.000000 178 107 47 1.000000
0.053177 0.076788 0.103746 1.000000 0.000000 0.000000 255 255 255 1.000000
0.415473 0.262940 0.295707 0.000000 -1.000000 0.000000 255 255 255 1.000000
-0.400465 0.232949 0.135592 0.000000 -1.000000 0.000000 84 26 10 1.000000
-0.385631 -0.213983 -0.484565 0.000000 0.000000 1.000000 255 255 255 1.000000
0.327425 0.262940 0.235415 0.000000 -1.000000 0.000000 255 255 255 1.000000
0.313128 -0.272698 0.424999 0.000000 -1.000000 0.000000 178 108 45 1.000000
-0.850150 0.116898 0.407769 -1.000000 0.000000 0.000000 91 31 11 1.000000
-0.802164 0.038620 0.071161 1.000000 0.000000 0.000000 90 26 10 1.000000
0.174479 0.087193 0.237921 0.000000 -1.000000 0.000000 172 100 40 1.000000
0.053177 -0.250056 0.254209 -1.000000 0.000000 0.000000 94 31 12 1.000000
0.611464 0.020054 -0.196173 1.000000 0.000000 0.000000 94 29 9 1.000000
0.558619 0.268938 0.282271 0.000000 -1.000000 0.000000 72 209 204 0.500000
0.297113 -0.336879 -0.409287 0.000000 1.000000 0.000000 255 255 255 1.000000
0.611464 -0.235551 0.170623 -1.000000 0.000000 0.000000 255 255 255 1.000000
0.223727 -0.096952 -0.158462 0.000000 1.000000 0.000000 255 255 255 1.000000
0.516930 0.268938 -0.479583 0.000000 1.000000 0.000000 72 209 204 0.500000
0.173704 -0.000332 -0.484565 0.000000 0.000000 -1.000000 95 30 10 1.000000
0.318670 0.262940 0.092879 0.000000 -1.000000 0.000000 255 255 255 1.000000
0.122005 0.082994 0.380800 0.000000 -1.000000 0.000000 255 255 255 1.000000
-0.544294 0.268938 0.139326 0.000000 -1.000000 0.000000 72 209 204 0.500000
0.243847 0.268938 0.198178 0.000000 -1.000000 0.000000 72 209 204 0.500000
-0.850150 0.194887 0.359406 1.000000 0.000000 0.000000 255 255 255 1.000000
0.594726 -0.336879 -0.022135 0.000000 -1.000000 0.000000 255 255 255 1.000000
0.434947 -0.336879 -0.327245 0.000000 1.000000 0.000000 255 255 255 1.000000
-0.754555 -0.181767 -0.436580 0.000000 0.000000 -1.000000 255 255 255 1.000000
-0.677131 0.268938 -0.032508 0.000000 1.000000 0.000000 72 209 204 0.500000
0.267704 0.262940 -0.291509 0.000000 1.000000 0.000000 92 28 12 1.000000
0.611464 -0.094042 0.143750 1.000000 0.000000 0.000000 92 27 11 1.000000
0.128122 -0.085814 -0.484565 0.000000 0.000000 -1.000000 97 32 12 1.000000
0.358441 0.150985 -0.181057 0.000000 0.000000 -1.000000 255 255 255 1.000000
0.551482 -0.206218 0.340767 -1.000000 0.000000 0.000000 255 255 255 1.000000
0.532935 0.268938 0.123630 0.000000 1.000000 0.000000 72 209 204 0.500000
0.364937 0.023012 0.013627 0.000000 -1.000000 0.000000 255 255 255 1.000000
-0.200949 0.111238 -0.436580 0.000000 0.000000 -1.000000 255 255 255 1.000000
0.167484 -0.272698 0.285069 0.000000 -1.000000 0.000000 185 110 43 1.000000
0.282893 -0.092753 0.441009 0.000000 1.000000 0.000000 175 101 40 1.000000
0.224337 -0.272698 0.023023 0.000000 -1.000000 0.000000 181 109 46 1.000000
0.119114 0.023012 0.328652 0.000000 -1.000000 0.000000 255 255 255 1.000000
0.543753 0.124582 -0.031102 0.000000 0.000000 -1.000000 255 255 255 1.000000
0.193061 -0.156933 0.044304 0.000000 1.000000 0.000000 255 255 255 1.000000
-0.801245 -0.270045 -0.484565 0.000000 0.000000 -1.000000 96 29 9 1.000000
-0.720540 0.232949 -0.088740 0.000000 -1.000000 0.000000 85 27 12 1.000000
0.310664 0.262940 -0.436784 0.000000 -1.000000 0.000000 255 255 255 1.000000
0.182167 0.268938 0.360841 0.000000 -1.000000 0.000000 72 209 204 0.500000
0.205512 -0.336879 0.350361 0.000000 -1.000000 0.000000 255 255 255 1.000000
0.611464 -0.187303 -0.457799 1.000000 0.000000 0.000000 94 29 9 1.000000
0.480224 -0.096952 -0.123374 0.000000 1.000000 0.000000 255 255 255 1.000000
0.365794 -0.231643 0.568717 0.000000 0.000000 -1.000000 255 255 255 1.000000
0.053177 0.219540 0.349907 1.000000 0.000000 0.000000 255 255 255 1.000000
-0.849271 -0.336879 0.329543 0.000000 -1.000000 0.000000 255 255 255 1.000000
0.117358 0.119865 0.275841 1.000000 0.000000 0.000000 170 93 37 1.000000
0.543941 -0.092753 0.403497 0.000000 1.000000 0.000000 177 105 42 1.000000
0.053177 -0.025593 0.308146 1.000000 0.000000 0.000000 255 255 255 1.000000
-0.003533 0.232949 0.166947 0.000000 1.000000 0.000000 255 255 255 1.000000
0.117358 0.148679 0.036743 1.000000 0.000000 0.000000 167 93 32 1.000000
-0.850150 -0.191613 0.101707 1.000000 0.000000 0.000000 255 255 255 1.000000
0.357273 -0.076468 0.568717 0.000000 0.000000 -1.000000 255 255 255 1.000000
